ply
format ascii 1.0
element vertex 108
property double x
property double y
property double z
end_header
-0.049152456708363 -0.059270801088191 1.033009460082805
-0.048884217408488 0.039099155316662 1.035248401081104
-0.046658890058866 -0.054761406015948 1.049614077796126
-0.045709212011282 0.031717784582599 1.051479651874204
-0.022814836504179 -0.018027244000158 1.017124096807965
-0.019814539598339 -0.016178813035230 1.047118242205183
-0.059872952937581 -0.063024134449601 0.996442191315622
-0.052270738569411 0.029731704503261 0.992337928343848
-0.055507257490272 -0.059931567258278 1.010621562727440
-0.049998015554022 0.026852417807891 1.006330238138649
-0.034108114396289 -0.025047600939653 0.975313808567565
-0.026497580576148 -0.018267247584257 1.007125880272489
-0.073966356679045 -0.075386335867529 0.952733051189264
-0.068971660241897 0.007801377006236 0.941352292999169
-0.070333781423500 -0.072280407132133 0.971203242980663
-0.065526146603370 0.013076161659701 0.963553885051330
-0.045958039256561 -0.039277897481711 0.926959388986791
-0.037379171648055 -0.028546812859076 0.963679685249298
-0.089912225059120 -0.087442734399415 0.901821030389286
-0.087583030612178 -0.011435464889412 0.892056766927386
-0.083152040072136 -0.080186407549504 0.923816905083650
-0.081710253835308 -0.002704830308609 0.917844799092351
-0.060409179432726 -0.062314712090721 0.873878512268745
-0.050570040903097 -0.047128686990555 0.911326130317097
-0.106150786885769 -0.104701815667694 0.850494045409239
-0.098543530425496 -0.031499714099148 0.840979113401827
-0.099386064015893 -0.096352111145266 0.874374654131672
-0.094385064963616 -0.025618113661097 0.862061108902537
-0.070384454449134 -0.078029652652482 0.827160251575367
-0.062472655625844 -0.066271493868483 0.864062315258184
-0.119596029687403 -0.118474542351412 0.794710355219425
-0.109001081551547 -0.048792325279912 0.793777568180385
-0.115060163631621 -0.115217855062139 0.817844734310626
-0.105665485520864 -0.044546631624652 0.815605793312326
-0.076106472672128 -0.089982184087048 0.775897301165027
-0.071488420515067 -0.081156253965500 0.817707337300821
-0.125064178573015 -0.126365416492475 0.740419124292073
-0.112835340491209 -0.051804471102194 0.733702805506385
-0.122961374061494 -0.121684338184128 0.761501371897388
-0.110730267038242 -0.051756823331821 0.758329643860049
-0.077848011284475 -0.097688517657144 0.722634404922065
-0.076619253438994 -0.092478523887201 0.762627018959364
-0.130658127656595 -0.130215810126866 0.681277400761717
-0.109610418382185 -0.052149602306638 0.682210187800756
-0.131213261997126 -0.129734542435643 0.709262524560528
-0.112481385625585 -0.052214897399371 0.713740154452522
-0.073914171025780 -0.098561051695553 0.669735547728934
-0.077691706429284 -0.098301888161464 0.712454673070884
-0.118833665361443 -0.130112447238757 0.626799612426558
-0.099938425205767 -0.047349278520058 0.630344455279513
-0.123343816747500 -0.129837905323753 0.652172680411454
-0.103404107212706 -0.050757480677023 0.661127940195442
-0.062416436298897 -0.096039753539491 0.615564066489027
-0.070283108397865 -0.098001379472130 0.657737889570046
-0.108358466913031 -0.126535839205554 0.568777233343049
-0.092525793500666 -0.036808784978913 0.578662002806209
-0.113033998920064 -0.128798730141342 0.598441373812131
-0.097083592657097 -0.043127534802287 0.603748175750449
-0.051184924035048 -0.090480342786816 0.562301422350670
-0.060149007480216 -0.096154209030227 0.603384388805224
-0.091841329497696 -0.116654347102260 0.507023453998778
-0.080601749886482 -0.031643413724081 0.521581738632130
-0.099882962192635 -0.123082258219662 0.541538339175469
-0.085335770161909 -0.032543679269057 0.551239828590689
-0.035990327378307 -0.078725713467290 0.501404042350079
-0.046889565772574 -0.087256176991607 0.545395539634200
-0.074084593738858 -0.103200280639446 0.443776963287438
-0.068335852427720 -0.011291261055269 0.460502591211229
-0.080808727767306 -0.108475317397516 0.472694874125289
-0.075346881496823 -0.023310600210198 0.493217197402575
-0.018897383044819 -0.061999329229683 0.438143181676246
-0.031938754269010 -0.076010294765264 0.486100032294705
-0.050728362595129 -0.081936265613821 0.372321442423343
-0.045522906708079 0.006340682924021 0.391724421253781
-0.059204119420130 -0.089454529148478 0.400120008814346
-0.057460563970941 -0.005025453198976 0.424373732352395
0.005602646692457 -0.036732901492764 0.369974348549436
-0.014790094817784 -0.056041341096273 0.422873205742567
-0.032415736181945 -0.057547918216624 0.311873564933726
-0.027263726471187 0.025687442427513 0.323254323123822
-0.037483038745375 -0.064668864893572 0.339858688732538
-0.032271784452407 0.020722242229167 0.360194706706621
0.022121800944633 -0.011209327058596 0.300169356535229
0.009835987222065 -0.029071946751595 0.352886446308050
-0.022644413791101 -0.029224470037708 0.232769190349508
-0.015422625272095 0.059671647410372 0.244149696434998
-0.024515786275098 -0.039534287865144 0.261873658595166
-0.020627829054540 0.046377163162615 0.287246726580062
0.031863627096676 0.014989131403547 0.222355001215541
0.027246331253431 -0.003546607585191 0.281980009273962
-0.010771043202550 -0.018309096948711 0.163552610483712
-0.013067716155428 0.073322103360595 0.163104620600368
-0.018574184941022 -0.020519802231235 0.197880938252596
-0.010054814019331 0.068014545108461 0.197134708621364
0.039239451529426 0.027800079018634 0.137643820212881
0.035495446038406 0.021500993354462 0.200188451703495
-0.012158879053878 -0.026901578205895 0.089671843318114
-0.019435374272200 0.070607440972385 0.081089950454346
-0.008544203225298 -0.019566846823784 0.116351065262270
-0.014268490389738 0.070934168540654 0.112205205030647
0.025295545818813 0.012290099500856 0.046752042710467
0.040660817293238 0.025422480487504 0.115829712938828
-0.042954212886249 -0.053079868299626 0.016351000480544
-0.049143380942577 0.057486404692969 0.011686813180742
-0.028942995246062 -0.046262455567274 0.037619553389062
-0.034259881368587 0.059236010652680 0.034448077456328
-0.017930309779480 -0.006473542050933 -0.027119396584741
0.017930309779480 0.006473542050933 0.027119396584741
