ply
format ascii 1.0
element vertex 108
property double x
property double y
property double z
end_header
-0.129665048975337 0.010138768144071 1.028792318118068
-0.129976654715447 0.079639526982401 1.046027187715418
-0.125653917496034 0.011606826173181 1.042967697240535
-0.125799723624818 0.074815002115769 1.061197608328800
-0.110973093381980 0.048792021649261 1.020003231957079
-0.106372641813596 0.044053322463786 1.047316279693479
-0.136932192233536 0.017973531248104 0.995865490600532
-0.139867576822881 0.087706409542290 1.002480163623571
-0.133958771262768 0.021158834369228 1.011154652994378
-0.135667482551258 0.083728437985253 1.019015017508983
-0.119411074483690 0.054803232851664 0.971968158680409
-0.110557862884791 0.055042423173298 1.006360605997475
-0.157219725262949 0.030614776319889 0.955694683005793
-0.158474925849871 0.097379841571338 0.956220365302879
-0.148514758022412 0.034860953130542 0.974638020068675
-0.150056206761829 0.091779228229925 0.975405087094016
-0.128740228496278 0.062861337785072 0.928854651807588
-0.120208375555803 0.063301194401001 0.966436303413104
-0.169249462356490 0.024320242840484 0.908355968096692
-0.173717030412855 0.084153665223712 0.900946432231119
-0.162757919927157 0.026729457486827 0.930190313970594
-0.165843743281485 0.086491927389326 0.925877085846537
-0.135177154583057 0.055009507073991 0.883608181699648
-0.130329710358389 0.059916687923328 0.921571903880088
-0.176089671615524 0.018771319966132 0.867531714974960
-0.180346576636322 0.078435529216624 0.854918265720368
-0.169708093340173 0.024934676694222 0.888724075000890
-0.173563665772379 0.082306950141089 0.879361517243079
-0.138398299678983 0.045685229520559 0.838223220151660
-0.134602707694404 0.055010726188780 0.876454903762758
-0.186947595573722 0.006721833213006 0.823537031932533
-0.186880788083275 0.067561512943209 0.810164561810208
-0.180679882619679 0.013317000399418 0.842815625562435
-0.181091211949542 0.067827523790204 0.830586197466429
-0.142504278288882 0.031616888676580 0.790547298091877
-0.139986318603346 0.040844612338710 0.828746309426625
-0.189317067077938 0.000505323080108 0.767869812429789
-0.184837795519597 0.057313634025508 0.753433055096525
-0.184262129516154 0.005868696683550 0.792199930100066
-0.180832515791282 0.060728862195868 0.779898574231499
-0.139247047395198 0.021153470264155 0.739691193193084
-0.140314748127546 0.029808697621294 0.783477407606565
-0.186460437303972 -0.008493450824617 0.704614578656340
-0.180410214428316 0.047890608174154 0.697352799503213
-0.183782042112182 -0.000876909267845 0.735074893132441
-0.178089507515666 0.049783649618766 0.725993219422053
-0.130613032635390 0.013185092179231 0.685309408324033
-0.137008021173422 0.020193783102127 0.733400804703963
-0.172649817326422 -0.019157779354296 0.648038387166796
-0.165523847560809 0.044769430490940 0.643381856318110
-0.174416802301835 -0.015539446660061 0.674253987769991
-0.167232802672257 0.046020486087579 0.667615907743001
-0.114904738577030 0.004179978877602 0.627991263573806
-0.126317603587254 0.012035954578966 0.675255856303725
-0.158237198465984 -0.021183216665011 0.578612481976520
-0.149395202723145 0.039151993365437 0.579707247057188
-0.163221183547039 -0.015744257944641 0.609500461920660
-0.154527188339604 0.034893137760976 0.610791260659426
-0.096889391691658 0.003144706598645 0.568014960937287
-0.112929528795628 0.003826191765787 0.618923243949056
-0.135205925692081 -0.019637379112353 0.513143091922993
-0.130000549365315 0.040765126054457 0.521043931048598
-0.141701369288740 -0.018216866560020 0.550655010162569
-0.135540450790228 0.034582751135655 0.554740019998095
-0.075883800051428 0.008030187204735 0.510510047801359
-0.094231965274241 0.003384628389152 0.562032764666866
-0.104761703531196 -0.017760917628874 0.442878435757774
-0.102311038982022 0.051994636200392 0.452516513457936
-0.113550789692186 -0.019453048956231 0.483390595493479
-0.111113779228649 0.044698478010211 0.490298831357748
-0.047354563401360 0.016239218549041 0.445707269714547
-0.068364787677788 0.009564565078375 0.497565243147073
-0.068426474886120 -0.008367882001333 0.377856460831869
-0.071279447315718 0.058209927218500 0.382692933023435
-0.084109411356866 -0.012207362118322 0.413996874933638
-0.086221405817611 0.052075829245350 0.418097733261423
-0.013769413897676 0.024707677520480 0.377929363896261
-0.038589859536154 0.018328049828792 0.434455571679449
-0.033181622508471 -0.007850489684813 0.303455835832937
-0.038315314885634 0.065604346060687 0.306346113175084
-0.047204124636377 -0.009722318532093 0.339785456549983
-0.049992240159192 0.063935621737282 0.342599417306328
0.019321262647523 0.033785693886501 0.304192181165591
-0.001416611385007 0.028799758221783 0.364719279863853
-0.008743003621959 0.000074975559534 0.248762932869692
-0.009987963644652 0.072654486886415 0.236163381523696
-0.020477714936523 0.003918600666805 0.279056716265593
-0.018649042752779 0.072243401379509 0.270861826652843
0.043446569033220 0.033125665139648 0.220741579440789
0.027055326869971 0.035565845301636 0.286479662393847
0.001689205451864 -0.012764009931054 0.171105076977074
-0.007839395740231 0.061879462733880 0.161574037555401
-0.001858906230515 -0.008958177382246 0.198276707397931
-0.008613777454307 0.063763238906094 0.192340593666540
0.040189825785451 0.023956458987398 0.132399401535950
0.043140327398182 0.031278706234067 0.202614317817771
-0.007201311059584 -0.025619331559816 0.094126268022021
-0.008369954496475 0.061410591185968 0.084312881615177
-0.005437008136707 -0.019768799686624 0.121579513959174
-0.007143525018577 0.061470083987679 0.111027831636013
0.024022413097492 0.010285549564686 0.048904911678738
0.040659672625194 0.022957760152116 0.111179489515785
-0.030857989720327 -0.045228305297581 0.028820726996157
-0.024483969956669 0.052714645394871 0.004741990795406
-0.026799556587204 -0.040076813844495 0.049652472867452
-0.018925537986961 0.055268690878167 0.032880623067026
-0.015749012492318 -0.004696395902291 -0.024572355778883
0.015749012492318 0.004696395902291 0.024572355778883
