ply
format ascii 1.0
element vertex 108
property double x
property double y
property double z
end_header
-0.130904175481146 0.017704248563398 1.023486679999010
-0.132589180159587 0.084462393274881 1.018904779893722
-0.125468501625156 0.019868359567851 1.038060187016343
-0.126916093282011 0.084457256935472 1.033772770370521
-0.114658219281707 0.050185032226890 0.998532060331096
-0.106227203493523 0.052231863481498 1.028465790351952
-0.148720139426697 -0.002613683378862 0.991033575497891
-0.156235174686887 0.089275714005778 0.980755760339873
-0.146183643815068 0.004455346409287 1.005801122004019
-0.149506570060699 0.084001264136802 0.999540494968456
-0.133921489531923 0.042367523645929 0.955606245126594
-0.121160824973886 0.046575327030907 0.991321781209190
-0.178879012324994 0.002638223667151 0.951290863966211
-0.181788463248175 0.072356897343720 0.939116598157402
-0.168034202366627 0.007056902320100 0.970021096326617
-0.170969905691234 0.077580554522982 0.960817061457333
-0.156421224314380 0.034946083903864 0.911152939652204
-0.140916898455206 0.040968156509083 0.946874182778588
-0.206936266348318 -0.002827412168727 0.906527666014125
-0.207896761817858 0.064008919042653 0.893614623386945
-0.195097574714251 0.001502236601127 0.927523880110602
-0.195599509215415 0.068192752843721 0.917074853638942
-0.178439855305498 0.024946487130517 0.864644527709712
-0.163513082277682 0.032908098567127 0.901750585011283
-0.228473793548098 -0.013149171563913 0.853580281917692
-0.228296019134098 0.055377586017507 0.842425579481631
-0.218304126869865 -0.006106679529379 0.873239335654614
-0.219286309105800 0.055468613365928 0.864221921117202
-0.192666944764892 0.013768100462734 0.815368484882174
-0.181682597585906 0.022707328500249 0.854801303936160
-0.242439215049807 -0.022152603844045 0.799971451446217
-0.242112772145127 0.037335052433569 0.786971947105647
-0.233430931782456 -0.015207987610476 0.821703874191361
-0.234514984750008 0.038053283894303 0.809570699097827
-0.200389431066781 0.000875888545381 0.765060608537745
-0.193526140207193 0.011124597780079 0.807629733505489
-0.251498005654683 -0.034496368853360 0.747342520393161
-0.250492995243596 0.024664273815194 0.734366414932122
-0.243436235599591 -0.025970045433915 0.773381763733006
-0.244179578052993 0.029316941263456 0.761005183221910
-0.206296221387481 -0.012989088985657 0.709381833284319
-0.201220947346709 -0.001741647088038 0.756971730024659
-0.255853050769394 -0.046841560623623 0.685878229499533
-0.244916357406038 0.014467498678968 0.673849493307322
-0.246348540044666 -0.036644500135207 0.716009708587648
-0.241354591377875 0.019294516314956 0.704677802441965
-0.205007856252313 -0.026424611471639 0.651472459966310
-0.202741589164053 -0.015240232407879 0.701684457975098
-0.254195154548946 -0.054126031314773 0.623648053329541
-0.244134777759256 0.004892791315646 0.616862663617660
-0.251045722434475 -0.046903196696534 0.654627599124569
-0.241872220249457 0.008160929940911 0.644822897896587
-0.199593298458339 -0.039424115812209 0.595492923505251
-0.201549958421094 -0.029385711141102 0.643047151221914
-0.251922039008140 -0.068363964157365 0.555752209438896
-0.244472634751512 -0.004246468606642 0.553818377651293
-0.251071974835900 -0.062868366341598 0.589775892390506
-0.244168449317606 -0.002745516090368 0.583959558713848
-0.193277027745842 -0.044990480970947 0.538838243764058
-0.202336959759475 -0.040130647833177 0.587865459482434
-0.234351477945479 -0.074200557839470 0.489498567398283
-0.225617418132146 -0.005521422188907 0.491802786327734
-0.238813815483406 -0.068732639186077 0.528450853365309
-0.229760161217940 -0.007945774390099 0.528543022122486
-0.174801900242764 -0.046027165475058 0.482492315091802
-0.190321349767977 -0.044759345697529 0.534204409560298
-0.205637343182143 -0.077654460740038 0.423869846652467
-0.202457949087783 -0.001005153087182 0.426499367077842
-0.219164463720924 -0.075792823056355 0.462627237074129
-0.212466106426813 -0.002995769960477 0.465662242960649
-0.149557933454792 -0.043152812871174 0.422322952433698
-0.170832080583751 -0.045936138126638 0.476883717809032
-0.176275173596666 -0.074398306906729 0.356434846547713
-0.179372671612666 0.001042534223994 0.361039574828154
-0.190292529196847 -0.078305349084073 0.391013539507717
-0.192583907277775 -0.001248273152556 0.398344807957930
-0.120456861122622 -0.035827822169127 0.361314083634363
-0.143503045347791 -0.042308170390533 0.413891651293326
-0.136767306916867 -0.067377216286399 0.288265349907429
-0.141087253712281 0.008424310011732 0.295198837405611
-0.150096107684011 -0.072187968847591 0.319712587940893
-0.156082511265555 0.003655789574572 0.327223342918243
-0.081736851837772 -0.022948451100297 0.292994777094640
-0.107996387067839 -0.033005689015904 0.347889689883767
-0.100376056849758 -0.058963892333959 0.221227274698138
-0.101008397301481 0.017690837010496 0.225582605165039
-0.111491951388060 -0.059721217044642 0.249258276320037
-0.118396618315112 0.013190547631377 0.259598868959723
-0.040899814659721 -0.011449043219434 0.220549277896110
-0.070987920215045 -0.020393978300737 0.279664264214359
-0.057077286333703 -0.051718229540567 0.150128923185793
-0.066474789987403 0.034601949163440 0.157868815971235
-0.071277838039482 -0.053696290917528 0.180937543019367
-0.078138560729365 0.031097538925348 0.193055023742484
-0.007958472562527 -0.003325637091430 0.139726409121005
-0.028187659973882 -0.009332300678422 0.204206872656651
-0.032640295537370 -0.054538365228465 0.081862121448921
-0.041567538782930 0.048905513009595 0.079842684004496
-0.042289765174316 -0.052984622557150 0.113341033575410
-0.051247826456332 0.047792924823101 0.110964620542038
0.006756854492940 0.002928997548156 0.053367993223617
0.001853077118001 -0.001541044498886 0.122131307770055
-0.038312811710568 -0.057630441552866 0.000433164623518
-0.043501085218344 0.052037253288323 0.005952161318815
-0.041726194600240 -0.051887158036696 0.026534044036276
-0.043105872436017 0.055606723825600 0.030542671593048
-0.007613767117725 -0.002205059043633 -0.033309161069337
0.007613767117725 0.002205059043633 0.033309161069337
