ply
format ascii 1.0
element vertex 108
property double x
property double y
property double z
end_header
-0.081900431589942 -0.016427520923549 1.013517106544860
-0.084188378612049 0.041879239275981 1.012618990911307
-0.076769473475276 -0.019135150535510 1.029248690027108
-0.078794320638862 0.041947696326547 1.028490042862247
-0.061958994934606 0.014097426836728 0.993303885181305
-0.056746552494826 0.019474881420784 1.026109116861013
-0.096202846423235 -0.024091900782689 0.979836237666114
-0.102178789326238 0.041565818376558 0.976201372630435
-0.096727002646230 -0.020969697315991 0.991428723956644
-0.094394354191850 0.043197292936143 0.988201025109782
-0.078853071092707 0.012441685785338 0.949891131341607
-0.069026163658580 0.015003461009711 0.988024518311493
-0.123614020129757 -0.026709361219836 0.936868965528610
-0.129387912558885 0.033660817093412 0.930251110058168
-0.110250335374195 -0.022112010488132 0.954876235068685
-0.116326409485489 0.036342392156277 0.946731634108555
-0.103574495760177 0.003343283978882 0.912270661377458
-0.087743547379905 0.010191798839852 0.943477114402330
-0.151181010257344 -0.030281899687090 0.897358774444717
-0.158142939037909 0.021096904820402 0.883413715632852
-0.141751562415313 -0.026493517161147 0.913719243219857
-0.148136970437935 0.025159626422123 0.904365404657556
-0.125423789544921 -0.005974538000845 0.866311458518737
-0.108798177417214 0.004868496848035 0.900985976377721
-0.180105391305493 -0.043828477159837 0.852949306383710
-0.176983443275551 0.002590767296162 0.839879884770883
-0.167306732653862 -0.037360818501832 0.868528138685963
-0.165577170380033 0.007475739814948 0.853720214512852
-0.141147709924494 -0.025848794789393 0.817898019309854
-0.130419877052501 -0.016861763408486 0.854521519615939
-0.184856514964217 -0.059800682066091 0.787820085872307
-0.182088857714633 -0.019241156789186 0.771165864827946
-0.181322036573585 -0.051507927787571 0.807252947946755
-0.177287413015007 -0.009193551998008 0.796174911282497
-0.147441160715012 -0.045469402879387 0.768546871770263
-0.147073331786595 -0.032101375698976 0.805186209155210
-0.198861601413707 -0.067574899730245 0.740793668247665
-0.193292824699522 -0.020002102884849 0.729630826580467
-0.194902331698104 -0.062804107441321 0.757863740330542
-0.188051773343087 -0.016947079284938 0.747449583794727
-0.153074562928426 -0.055165526694521 0.713983537227647
-0.153140976484946 -0.044611646253258 0.754580356270906
-0.193044284736084 -0.071924987682291 0.679994867058108
-0.191539251370643 -0.022763118778781 0.674415872873689
-0.192753597707932 -0.069337924219089 0.704908635602729
-0.187251489987023 -0.022648683112163 0.700244615877749
-0.155163780154485 -0.050569197709840 0.663198623177496
-0.152432394924230 -0.051413927061420 0.703079963867632
-0.198594670003848 -0.074725340836624 0.622185186785453
-0.195846681384464 -0.021576359611124 0.628529469490385
-0.195572853182198 -0.076874841137063 0.648128365456132
-0.194456083685642 -0.024052818959045 0.651095774248787
-0.152542488166000 -0.048539497247893 0.609624595190270
-0.150837958694244 -0.053405056573235 0.650070706547580
-0.203643377483132 -0.073314308197334 0.569085760290587
-0.205536163843946 -0.017083227075804 0.578118259414035
-0.200224356506142 -0.077112141883243 0.591258692444988
-0.198488152876661 -0.020065962073810 0.602564578695460
-0.152387182618446 -0.039581585657152 0.554578229742350
-0.152892436521508 -0.048338213084286 0.598562395604875
-0.194757243620783 -0.060812977929506 0.511076328474862
-0.202189176032104 -0.002357042664563 0.518555261249258
-0.190275861176232 -0.062850852367641 0.537088219632863
-0.195964948602420 -0.010425012597939 0.549761969710886
-0.146067932715587 -0.022484692714910 0.498002564437185
-0.151725601420806 -0.034770178924048 0.543517051903979
-0.188384096562442 -0.047554533117353 0.441124462013098
-0.193152589920563 0.021798589588709 0.455988582272496
-0.184433256259781 -0.053004787176825 0.473108209086008
-0.192670836199038 0.011307035715873 0.488543485931475
-0.141763823379593 -0.003567812887270 0.433981939446150
-0.147096321094621 -0.018135115636375 0.485661648452028
-0.159106957354470 -0.030459683669158 0.358802815212767
-0.170519360732129 0.038622676075708 0.367955114174707
-0.166413725755426 -0.033494016891845 0.392166942514265
-0.181774415068187 0.029527850383834 0.402862590355022
-0.118074874079250 0.017198939926202 0.364902900379110
-0.135809848037594 0.003427067234799 0.418092496048790
-0.114543716366444 -0.017487838897063 0.287047309817979
-0.133610537569765 0.048387767814920 0.288290520508679
-0.132147395832283 -0.022633612343568 0.317125754129038
-0.147480242538656 0.040210726386799 0.319062220175102
-0.083645320069122 0.027196223676478 0.296121956006142
-0.106598100639118 0.014401652012939 0.351291952843890
-0.068164575481114 -0.017135336173996 0.224495701609812
-0.088205121597717 0.053071967043613 0.220137950555090
-0.086999970983639 -0.021145182367257 0.248066383692198
-0.106462463721764 0.053245408600832 0.245530407580166
-0.032591431115065 0.036989668895589 0.227989565556265
-0.069068310723295 0.033472560204354 0.283707218798546
-0.046396255147972 -0.014585821913904 0.163326772561035
-0.051648545721664 0.056399286225254 0.147931343849479
-0.058447505852000 -0.010234201341322 0.189946347761192
-0.069118631764196 0.056575282150032 0.174763442430499
-0.003850453657613 0.026399260998240 0.140416905366021
-0.024561776695066 0.035851187274786 0.207713251314016
-0.032753888891783 -0.032546857401170 0.085930457286914
-0.036491439503312 0.041978093300493 0.075512980073273
-0.042383599150397 -0.025427324142248 0.112481064562993
-0.045233762472120 0.048395175480840 0.100412699596323
0.011348544188698 0.005736726381153 0.046678001889669
0.006994113811802 0.019474625984028 0.121513819123196
-0.038381416059812 -0.048444985648230 0.017129333410234
-0.027321004531708 0.039645955719625 0.001665192211356
-0.041533250190188 -0.041044471957878 0.035477866456118
-0.033424921249389 0.045306945102669 0.019121740105828
-0.007649564527301 -0.005099156238563 -0.030082786735908
0.007649564527301 0.005099156238563 0.030082786735908
