ply
format ascii 1.0
element vertex 108
property double x
property double y
property double z
end_header
-0.074232416091353 -0.031746301465250 1.063954962994653
-0.079010359457329 0.039965850005803 1.063412234631694
-0.079088728109833 -0.029113827183410 1.081752025979700
-0.080871106066946 0.034437297792791 1.082078222773564
-0.058314165216987 -0.001309494383481 1.040109773808239
-0.052824033999196 -0.001770037438780 1.075502380386180
-0.086303478570067 -0.033861746195505 1.019901093652953
-0.091837374100295 0.036179219205267 1.015165896824707
-0.086238340988765 -0.031575569758009 1.038381337910642
-0.083819090508218 0.035591963198841 1.033876158166368
-0.062721129701954 -0.002526498490386 0.995409871970735
-0.057136090992657 0.001015866380267 1.032485114584421
-0.105094398557324 -0.034663243777933 0.977622477845412
-0.101454072871041 0.024484733368456 0.970375413038205
-0.096011268177165 -0.030871524103858 0.999974845979095
-0.093122823556302 0.026774472017429 0.994337646316021
-0.068369779330491 -0.007213096576333 0.948680272922112
-0.062154229189684 -0.004145523606889 0.987761803928637
-0.117057068029653 -0.038008414798941 0.924965867785657
-0.113887463145748 0.018868652530569 0.918498672848335
-0.110085565724594 -0.034579022920858 0.954301697077216
-0.106629711704108 0.022237486813535 0.947928137413015
-0.071771182404108 -0.013751026855850 0.898034022354027
-0.070489549603254 -0.008428574021176 0.942911271434372
-0.121142161263264 -0.040492293973435 0.870002216906894
-0.116956562777253 0.014305205184271 0.864959143229525
-0.115638290086917 -0.036908709227115 0.899513357891880
-0.111817054946315 0.016286558096768 0.893397040785087
-0.070232561489524 -0.018773999482740 0.846164915474466
-0.071371451387602 -0.013798098936088 0.889519064704522
-0.119594125932632 -0.046999691011717 0.812786230599672
-0.118452437154108 0.010801515752516 0.807781069030169
-0.115863472741028 -0.043184562519361 0.842208061854043
-0.114948493278676 0.011969921117122 0.836956344361566
-0.065999127592244 -0.023839973091036 0.793339863700563
-0.069724946353986 -0.018077587138897 0.840628984394822
-0.114845698033183 -0.052985732955905 0.752075969276742
-0.113553887485252 0.004630493255177 0.751430191224615
-0.112144269514887 -0.050803115094932 0.780984333191006
-0.111569481248632 0.003585238630221 0.779994547287628
-0.057346261469826 -0.028279506366654 0.734733342698747
-0.063533568362491 -0.026695594477571 0.784539165801831
-0.106959216265773 -0.053908600172243 0.694825378629453
-0.104485260394679 -0.000503671258545 0.700614481167674
-0.105864345123809 -0.050309748805304 0.725562429250037
-0.102845625340342 -0.002996201518056 0.726304641455732
-0.046632401564023 -0.027778252323041 0.681755624718667
-0.055016320719893 -0.028360419455928 0.728967140091454
-0.094855584996408 -0.051859056354321 0.637602013455599
-0.090648358797855 0.003520864379950 0.642561120719572
-0.095401621127167 -0.051168496215048 0.668358401795632
-0.093661735264106 -0.000434717022088 0.672027225173735
-0.031538293759334 -0.024395169194165 0.626532186845727
-0.044364290627592 -0.027498109834707 0.675842608109767
-0.078423612338257 -0.046079368232148 0.580549379988986
-0.073693504383549 0.010699992725409 0.588560284714431
-0.080537530406450 -0.045350132653978 0.612383337300949
-0.076215295665911 0.003677856128635 0.619040856108637
-0.015183417535303 -0.017585493067654 0.571462941841026
-0.027816037209070 -0.023898240693060 0.621978153915477
-0.055997964425609 -0.040803987477713 0.518417796286551
-0.055977863375129 0.023669750271149 0.532922103648044
-0.060720693513685 -0.042546163333866 0.555550797614907
-0.058916687844031 0.015674112166322 0.566631819746565
0.004504416413243 -0.008393460793756 0.511885972655282
-0.010384355344138 -0.016939969459204 0.565669259316621
-0.038885609375264 -0.029179982539420 0.448381665315641
-0.038888408255711 0.037374341155954 0.463765838912066
-0.041008941859505 -0.036165224803034 0.486892224711065
-0.042966631510044 0.024736887052324 0.502217621818112
0.020799752816866 0.012311384531604 0.447744792792208
0.007525171746126 -0.003173803204575 0.501741303254841
-0.018574388418164 -0.017777598043760 0.381333720886964
-0.022824615598123 0.052754189209870 0.396209516016820
-0.022354149239422 -0.026484915113047 0.419075605934287
-0.028911417238387 0.041804968902878 0.435691541370881
0.039396532278602 0.024559285365805 0.377732833970609
0.027534876946028 0.009553723960699 0.436153102200889
0.002092290355652 -0.012401966480602 0.315499981684744
-0.015165606477915 0.061915433798856 0.320284795029998
-0.004445639923865 -0.014417160402134 0.347797535376130
-0.012098033508472 0.057039784060927 0.358424121100736
0.049436116440458 0.036236214588906 0.297044418463721
0.045313874430011 0.026057195292076 0.360790701740151
0.001340663733908 -0.006229671764878 0.238656464580416
-0.004794482204979 0.067721075176079 0.239470938790368
-0.002702446293004 -0.007619952015794 0.274656937102618
-0.004234960559341 0.065457035338478 0.277522990679908
0.049926429405962 0.043545109209615 0.213046962937953
0.049677583489894 0.040464814056324 0.285760095834171
0.002786158262725 -0.010423921335906 0.171354076474777
-0.008139144338633 0.065936916113227 0.164553814764313
0.001546508668570 -0.008664443309719 0.202435389390289
-0.005037730360154 0.065379938904359 0.200672858039979
0.037831194777937 0.035436752555894 0.134558213018394
0.045681036655866 0.041816418868341 0.200706444605338
0.002407037184052 -0.025632019907874 0.101804950701571
-0.019487586774777 0.052984969624874 0.090134128126717
0.003288175637369 -0.019427665288853 0.129052815179986
-0.017302424477035 0.058757533324091 0.117836429012185
0.022677801596516 0.013911071928658 0.057724110330114
0.040228817545942 0.025706317461546 0.111171022450510
-0.023195085591778 -0.058493166343729 0.026276144076100
-0.039114354240852 0.045691341624783 0.010385373118846
-0.022045509059268 -0.055335265868964 0.049486241844819
-0.041599251190055 0.050636708930199 0.026849151236617
-0.014954927113391 -0.006824052194259 -0.026141288927311
0.014954927113391 0.006824052194259 0.026141288927311
