ply
format ascii 1.0
element vertex 108
property double x
property double y
property double z
end_header
-0.078102737481202 -0.038666549003862 1.040725631498032
-0.080380061926243 0.031273302939867 1.041276927182043
-0.077336807421839 -0.037706450302195 1.057263222910037
-0.079402055708158 0.029599717619775 1.058002291694773
-0.054289833791898 -0.003068197116558 1.027029707119897
-0.055810181935784 -0.003336298219501 1.056796860018180
-0.083481899591501 -0.038168208404116 0.999326523399618
-0.083389292149453 0.035888837385770 1.002091955577880
-0.084467836281142 -0.035003438609732 1.016572740818448
-0.082985093921733 0.033788285709941 1.021225113583840
-0.057279877390374 -0.000996553288661 0.982211030850638
-0.056620880786193 -0.001454985708961 1.019720114739741
-0.093986448722288 -0.034372326566830 0.958666995729266
-0.091498327226841 0.027010034924072 0.952976242833295
-0.090003561249266 -0.031159973943107 0.980326648480140
-0.088298765686274 0.029631183684338 0.976494439966692
-0.057740100562316 -0.004552218584282 0.938778652173793
-0.057324902003082 -0.001740994328322 0.976039844871338
-0.097453599722472 -0.039146726265527 0.915042239161760
-0.099597385259368 0.018567664219646 0.908724211547833
-0.093499875919045 -0.035501779209478 0.938717766617972
-0.094545163234529 0.021018691573942 0.934623085078170
-0.058501425831744 -0.011846973307978 0.889636333976245
-0.058791527597715 -0.006144196793841 0.930428633089752
-0.101497628572979 -0.049243239843648 0.862352186140146
-0.099519359652118 0.005943120966633 0.855800337526133
-0.098580494148490 -0.044999925917575 0.889164598829462
-0.097242035207077 0.010623889936630 0.881450040756596
-0.054778964811772 -0.022805861712456 0.841750100144585
-0.057914315114897 -0.018112813302630 0.880873162906274
-0.094168593746425 -0.055855462370155 0.801722963625452
-0.094671539136107 0.000376953220598 0.798822969252391
-0.095469702725023 -0.053711932654923 0.829371145688161
-0.093975960034100 0.001469823365422 0.824383646544090
-0.046755629991527 -0.029454155093463 0.791498539215774
-0.053942427973389 -0.027396069813711 0.835806083802132
-0.091274227449953 -0.064477931525413 0.751853600261333
-0.085843901007032 -0.009788376384900 0.747845130621999
-0.092181626889019 -0.059815837536823 0.777201178107658
-0.087912219153309 -0.008565804656878 0.773030261712247
-0.037193783689315 -0.041868412939397 0.739754003061029
-0.047697309533450 -0.036588509634387 0.783002445962094
-0.078212484974678 -0.069048697180271 0.694598921304775
-0.076291520106355 -0.009151636265409 0.694649829815734
-0.078317883499881 -0.064842989038677 0.725415710486815
-0.077153127467723 -0.010157271223110 0.722711163864373
-0.021458704834498 -0.041693686743490 0.684887163507978
-0.032597435868145 -0.040530977284637 0.731072439101592
-0.063665186101700 -0.063343362449502 0.642396976016382
-0.055905091772800 -0.009510042415432 0.645118406868589
-0.065487915451387 -0.062330820306897 0.672093777957309
-0.059104397491703 -0.012911703069859 0.673432748542048
-0.003273621912038 -0.041829528046604 0.631980685359369
-0.017030943489321 -0.042701879917822 0.679431254898745
-0.037427860511064 -0.063311384741613 0.586412451617186
-0.037671402734348 -0.007010153123482 0.591150780461383
-0.048849530304115 -0.061263788150049 0.617216961359396
-0.042098908257863 -0.011636687900899 0.620623226803759
0.015606016825776 -0.039354453455975 0.578404977740054
0.000712079599278 -0.041744083611123 0.626526567501778
-0.019267592289926 -0.066952750294378 0.520790101881832
-0.020485815049675 -0.002079702210285 0.528133206899857
-0.022007186480214 -0.067115452872119 0.554360555445632
-0.023581001351692 -0.008746158929373 0.561446559692226
0.034067131322735 -0.031912089632663 0.518490520952101
0.019714256913723 -0.038571383345183 0.568580658411487
0.005046210215755 -0.064365114171980 0.460154995468886
-0.002903192143849 0.000198389699745 0.462967754654825
0.001004739581880 -0.062624247754489 0.499628789730704
-0.004760713239720 -0.003488767930717 0.502029420217366
0.058131251885218 -0.025944537697202 0.452373923763610
0.044294113949044 -0.030120058882549 0.506217732485869
0.019779491437818 -0.059736532821258 0.387888957142462
0.018414682865104 0.010351951508740 0.393673084945470
0.015102303971104 -0.063370479545793 0.426337162356856
0.012982821492205 0.005705462641600 0.432128453166431
0.075479286325968 -0.021795366143156 0.375245227264715
0.064515793131554 -0.024778246735065 0.436868061118944
0.029553413898751 -0.051168553680244 0.316294450681711
0.026560300440318 0.018812741372910 0.321301648093842
0.025358961910334 -0.053647977239145 0.348735195781199
0.025378916000057 0.015512641918739 0.358291414006823
0.083276986439346 -0.011681200870280 0.297912129256991
0.079415102612977 -0.019242777588604 0.359218767535611
0.032911840692112 -0.042347566914409 0.240939877416512
0.029125424256362 0.028978326800071 0.244896671079896
0.031509170513258 -0.045087161104697 0.274274975050246
0.030708960351037 0.025660575651146 0.281463307962087
0.080230662074985 -0.002443992258560 0.215441108967286
0.083278265547662 -0.008610573447923 0.277867222843693
0.024279906135319 -0.039831305036020 0.156359607514431
0.024930460624618 0.038843833416400 0.162516211658933
0.026363829403046 -0.040747146589968 0.190213767302624
0.028729156500198 0.034935390047344 0.196698846462564
0.065695130998510 0.003051057065129 0.124915031971109
0.079282586991484 -0.001122417546913 0.188346524983554
0.007099179062245 -0.042277727600379 0.082555057706039
0.006450415324588 0.041881971487542 0.084226084809500
0.013285714341331 -0.040057451386213 0.113345241435115
0.012024001898853 0.041061807235598 0.114705956861218
0.033200663349768 0.001447822702394 0.043089449737440
0.058886437434730 0.002051050184017 0.101149199467818
-0.028319841839216 -0.049256542570129 0.018052695211798
-0.031151020184898 0.048575033659594 0.017888201882416
-0.021028156975477 -0.047089221440228 0.043465507582218
-0.021397563457014 0.051599613182591 0.041540705388948
-0.019802003744172 -0.001215280810623 -0.024887994228541
0.019802003744172 0.001215280810623 0.024887994228541
