ply
format ascii 1.0
element vertex 108
property double x
property double y
property double z
end_header
-0.247257674552852 -0.039607419402077 1.042908601185657
-0.251265440700884 0.039085430741533 1.048239164285894
-0.246992423434318 -0.035340787317904 1.056880444456372
-0.249533726026326 0.033876984254542 1.062340573549312
-0.222309170651793 0.004149171333088 1.025904062328018
-0.226731707606037 -0.000092984218583 1.056339034199385
-0.244836360179960 -0.036069230209122 0.999888168770434
-0.245100547101428 0.046278870804629 0.997712683919634
-0.246134680599663 -0.031998144335703 1.013684685574636
-0.244336453608522 0.040544710967366 1.014516089531925
-0.217184529683698 0.002866813869365 0.978585604015195
-0.217669005397689 0.005332824519001 1.014339964917613
-0.251335411657929 -0.034365450707529 0.953295758905432
-0.248350072840413 0.034108979214784 0.946424770553131
-0.246260787951904 -0.029220057896659 0.970703362401564
-0.244397910989044 0.035419005802205 0.969573451167450
-0.213483252290481 -0.001010056039631 0.927070750624510
-0.212583473671744 0.002024501892157 0.966875711606839
-0.254951553285920 -0.037288800045990 0.898785988923643
-0.254316493687184 0.028300325582948 0.893152395709053
-0.251957966941147 -0.033772692942140 0.925444923557953
-0.251056325977547 0.031009239212745 0.919797229732248
-0.212395642889714 -0.005854015031746 0.876920729970111
-0.214464175935448 -0.001412322530326 0.918448892050475
-0.250915585915657 -0.041542927814645 0.853439487772875
-0.251672762127639 0.017881570264103 0.844406050983824
-0.248000750153718 -0.035625726082146 0.877789646873953
-0.249257832937139 0.021920730225562 0.870696507384263
-0.206568897907767 -0.012799231129354 0.827786751463835
-0.208453856959732 -0.006700849846482 0.868835758815534
-0.245689580177088 -0.047357434530341 0.798286410665094
-0.244707592335055 0.012581336780228 0.790515909743322
-0.241166742649437 -0.041090111963348 0.825519479616150
-0.242540887110044 0.014700153137300 0.816663763737008
-0.197429307461448 -0.021518729784134 0.776323511630818
-0.200722997378644 -0.014068286129760 0.819036657143427
-0.241822288041680 -0.053054879568850 0.746018371801422
-0.238915167708465 0.005583708977152 0.734715800819821
-0.239774240789453 -0.047665253531488 0.772545612048898
-0.237228415359918 0.008010078286104 0.760974331308301
-0.189755648472621 -0.028295004597621 0.726279910682952
-0.194703100629340 -0.020659124604614 0.769839092862497
-0.231382248781529 -0.060831499623748 0.691012952036456
-0.234441815344352 -0.001783993355392 0.687065579071881
-0.233086294332388 -0.053498649745093 0.718945730557965
-0.232263137902355 -0.000969616551149 0.712052660116558
-0.182823202739797 -0.031938549300044 0.677023549514163
-0.189804335488360 -0.027294659356211 0.720618382295397
-0.227559120824331 -0.066231501582497 0.639332349952845
-0.228116760086564 -0.008123415273562 0.633814488169111
-0.228808222129762 -0.059539564386437 0.666392752930051
-0.229534004528317 -0.007180802722946 0.660562017209109
-0.172398328287826 -0.036970339074190 0.625166822816240
-0.182725296609787 -0.032998223527846 0.667051224864223
-0.211886956692486 -0.070847722402632 0.577171003071335
-0.211111689130393 -0.008658706397423 0.573405607804932
-0.217485431403920 -0.064799890480363 0.608518257876955
-0.216828555765345 -0.008249788675070 0.604076565375535
-0.154847856335674 -0.040579829470522 0.570751766373266
-0.171650197750900 -0.037711286280926 0.615962582398203
-0.185272186236387 -0.071559404190071 0.513753105504936
-0.182176703022609 -0.005697844112409 0.515143745020056
-0.195511358300458 -0.066678730399202 0.550563948043960
-0.192159137544669 -0.007937180787129 0.550715064027237
-0.128640141257064 -0.041619816052616 0.513321307545679
-0.150330339793349 -0.040901749082784 0.562597888458709
-0.154616659523231 -0.070258157228439 0.447775015848620
-0.149243262491115 -0.002815732410229 0.451245096429394
-0.166250461841416 -0.070613066949726 0.486747508676595
-0.161226387495994 -0.004612895204305 0.490073124505751
-0.095750332805248 -0.040378962274441 0.452793769208716
-0.121098176655072 -0.041493442651108 0.505296197476026
-0.119230244756152 -0.069800020391814 0.387524966896442
-0.117422173942156 0.004090640494495 0.390608211843969
-0.133221509623309 -0.071122285245487 0.424016550315867
-0.131073693896207 0.000186101461800 0.428899618550132
-0.060543501292943 -0.034325277268313 0.385309840704958
-0.083831857772087 -0.037405595673910 0.442820114312445
-0.084274829800531 -0.066192924438879 0.315838258132431
-0.081152209561587 0.007305845878122 0.319751576790915
-0.092388800325138 -0.067510400405757 0.350689381775650
-0.091645458675005 0.005840180469897 0.355308795186980
-0.024800846558244 -0.028286224971832 0.310706433834144
-0.043234868123887 -0.032677634161916 0.370695222406784
-0.054092870781446 -0.060692887955989 0.238156661250151
-0.053138818112378 0.015138336278949 0.248326660504975
-0.065244591829037 -0.061542117214122 0.274765306346762
-0.062566805963401 0.012910971821214 0.281301870771284
0.001315347572748 -0.020808112193760 0.231575134499619
-0.014738597256285 -0.026574996090782 0.292633175073649
-0.036691386418440 -0.055038808947891 0.163155510726171
-0.035614152939060 0.027269384675910 0.173041369364552
-0.043679170398662 -0.056724231050107 0.195549669394809
-0.040744646991015 0.023347020342371 0.205352520662095
0.013011139369988 -0.010322046410533 0.142010713185867
0.007278575828323 -0.018426971260085 0.209693912590107
-0.028206277167300 -0.050081512968319 0.083505149273031
-0.024748168803510 0.039451780581272 0.093013217953219
-0.027758782301328 -0.050834166342773 0.116727785357028
-0.025184489600296 0.034184803255689 0.126648230400032
0.010458928758061 -0.001696729196035 0.055602168269350
0.023216523177234 -0.009214217265525 0.121861205950913
-0.034876930422053 -0.060639944151988 0.018501598079291
-0.044949821694666 0.058832139387259 0.023599900170019
-0.034220054783478 -0.052258328065451 0.036689258024309
-0.025141123569883 0.053922998324893 0.041837577377108
-0.011455549309742 0.000400537170463 -0.030046539942522
0.011455549309742 -0.000400537170463 0.030046539942521
