ply
format ascii 1.0
element vertex 108
property double x
property double y
property double z
end_header
-0.072084813049116 -0.066206144562202 1.045934595679041
-0.071600781828722 0.003005615248194 1.061865560345703
-0.065681431472512 -0.068612740041074 1.061322858674352
-0.064994544400460 -0.001705732662607 1.076886026032892
-0.053890608062052 -0.027025906714239 1.033132260484396
-0.044066351748288 -0.033433992996816 1.060949803165437
-0.091958321321115 -0.059731362153773 1.011281945461524
-0.092181102986305 0.014255950966584 1.018339557915779
-0.089479771515598 -0.058084715063238 1.031270580656156
-0.088603865962397 0.011844650781739 1.038571730831364
-0.071017675035485 -0.020745124240342 0.979688184368659
-0.062446807742399 -0.024733054420948 1.020728995055221
-0.109263613626701 -0.059046965808412 0.968836641668330
-0.114051067075299 0.009093504777200 0.970575722393863
-0.099266666928988 -0.057720238724039 0.988378329795531
-0.104246183080247 0.010157598569318 0.992447900462138
-0.088818898700102 -0.018071190763242 0.940978417117993
-0.075529211316141 -0.019056134796051 0.976381052817081
-0.129229555533698 -0.058862928780647 0.919341474348365
-0.134214053138340 0.006837736636872 0.913439835826406
-0.118476811658800 -0.054361355406758 0.947727732957314
-0.123792299166011 0.011093281563116 0.942320642057336
-0.094350249187248 -0.024042016137744 0.889855144783975
-0.086685729662482 -0.018647102123814 0.933456145762055
-0.142067591144256 -0.058655921717837 0.868622253233201
-0.140365871319096 -0.000436292292139 0.860514107609926
-0.135290323816507 -0.053557680927613 0.896735638895719
-0.133907693755278 0.002995652341428 0.888921399022048
-0.097542807311015 -0.035220397529489 0.838635564351216
-0.094744890994156 -0.026677758472240 0.884578401914189
-0.146889638019126 -0.063961999813101 0.812019382177740
-0.140945103648590 -0.007539014574253 0.804679210617697
-0.140811157902066 -0.058534429604770 0.841452576239377
-0.136182834214318 -0.005014247951236 0.834287309042564
-0.096172630883244 -0.043924380326869 0.784338552717324
-0.096445227082265 -0.035692805358656 0.833769237890718
-0.147356234152679 -0.071646168403990 0.756327563596571
-0.141974604014437 -0.015531756527486 0.745626571487376
-0.143717835951123 -0.064205537534054 0.781990074194588
-0.139775845840606 -0.012178408158408 0.771398674059822
-0.095577900698780 -0.052175050866384 0.729626696715581
-0.097947135277279 -0.042692854351595 0.773810527739488
-0.145577578547492 -0.077601495923523 0.699788344445449
-0.135549636139840 -0.021802022599796 0.690811765449048
-0.143467656292326 -0.069410326077195 0.724877434409586
-0.136890477342132 -0.019643946295260 0.716317637012907
-0.089006533444200 -0.057344969235843 0.680276545038547
-0.095429840834337 -0.048971976341031 0.723299143929364
-0.138371906228793 -0.087892901865660 0.640227873817459
-0.129585452703182 -0.029517740395445 0.633504848982104
-0.138659446787964 -0.081412307761618 0.671091021747465
-0.131966587420318 -0.028624676502814 0.662914242766466
-0.078393823758851 -0.066952532327441 0.622350821362454
-0.089076273791564 -0.059311536332539 0.672846984065018
-0.119494965380830 -0.100931302601184 0.584996562926820
-0.120067832519890 -0.034682677311521 0.577337024855436
-0.122101372489848 -0.094491390366437 0.618115202249742
-0.120575940764970 -0.034928429011755 0.609586677310413
-0.064344187986551 -0.074209402917021 0.563291540294289
-0.073377223454628 -0.070131806575519 0.614318504529567
-0.108265939213024 -0.107117714208212 0.509873201687699
-0.102806543052523 -0.040695845039780 0.509276257523954
-0.110856018224841 -0.101692634726573 0.545197241122298
-0.104749309871944 -0.043323284951971 0.542270083764888
-0.050915850150093 -0.075233368334665 0.500839059229982
-0.064245665908529 -0.075861308208349 0.552037053364747
-0.094027284959575 -0.107408575736305 0.442331612497703
-0.085111036898592 -0.036609946275972 0.447655402427219
-0.092955995734792 -0.105396622064340 0.483426665676659
-0.090176067999595 -0.039335078023955 0.487961448739769
-0.031095200633436 -0.076405116869341 0.437639636905615
-0.046193155595475 -0.078064771088154 0.493378779293924
-0.068636263570939 -0.103708186114869 0.375705226993153
-0.059547048378597 -0.031974980650379 0.383310522572142
-0.071314625006602 -0.104848385444786 0.414767847191791
-0.071410656357932 -0.034805553161638 0.418850148239267
-0.005154282140784 -0.074539009082538 0.372357413572279
-0.020205190043093 -0.077638303329076 0.433496451427901
-0.048873177515599 -0.100714332631608 0.307705620839319
-0.039977408762968 -0.027990094691285 0.319185933655564
-0.053188776629851 -0.101757393620553 0.340882653865789
-0.050338831799880 -0.029050037272251 0.347207439177904
0.014768210422816 -0.073057580195877 0.293064852598888
0.006226401607798 -0.075917487932615 0.360877377503444
-0.033167208493409 -0.085234189496120 0.231028046144662
-0.019733889203567 -0.011095218794988 0.248138231526075
-0.042816837191353 -0.089816573113779 0.263193290639536
-0.028151161684006 -0.015556663794401 0.279364195310818
0.028897272701835 -0.054509968766021 0.225690142097227
0.015309528357116 -0.066648386923659 0.283885694498240
-0.020847797529517 -0.062105301438244 0.158611274577042
-0.009189259381120 0.016626015787313 0.178588563127857
-0.025775008420253 -0.071671352418316 0.185524960216456
-0.015579910576856 0.001624922418836 0.213016217700903
0.034081305189213 -0.019690716607579 0.142114084709165
0.030825648655927 -0.040711896389570 0.207481822992244
-0.016683579248630 -0.053651221552252 0.086770691117405
-0.017568063971545 0.041217790655368 0.107046313376387
-0.018657341777990 -0.054569469459209 0.117176652325803
-0.017298788741446 0.034510263674983 0.136636699967003
0.019301333001465 -0.000566363574921 0.057224307365007
0.032741017481741 -0.009031790104731 0.117743984516660
-0.029994022688354 -0.050431818929698 0.006347893720864
-0.040990304284205 0.049857568053587 0.016167445328655
-0.026458851270793 -0.049337282922460 0.031571206178935
-0.033299770502882 0.053342094695087 0.044161829604798
-0.015595961926646 -0.001076409051871 -0.029051697756712
0.015595961926646 0.001076409051871 0.029051697756712
