ply
format ascii 1.0
element vertex 108
property double x
property double y
property double z
end_header
-0.110562316482455 -0.007927151394866 1.026785801651240
-0.110626459482895 0.062206855203151 1.029635547873130
-0.104553090717482 -0.005480482782745 1.041204499232676
-0.104400095934331 0.058111436937693 1.045087771387729
-0.090691214279944 0.026932947050583 1.006165449303509
-0.082302457907202 0.024289856098593 1.038473305248953
-0.128155718210191 -0.004698038010839 0.985303999140895
-0.125047652900924 0.059411518218988 0.988954409741821
-0.123063462809487 -0.005123827733605 1.003373856074236
-0.118406481310603 0.061100450841473 1.008689239266354
-0.108796512092905 0.030571128052203 0.960808361315209
-0.095550358542861 0.029331945183777 0.993699993439756
-0.149033141727000 0.003894378627892 0.943737088602730
-0.152748943246663 0.055333321226021 0.943903810487142
-0.136793059907596 0.001033401141333 0.963083815537050
-0.140518096022653 0.056780656866303 0.964383148067368
-0.123101399525701 0.030366469451577 0.917789622630894
-0.109923132730987 0.030140346656250 0.953929086913916
-0.168146757523535 -0.002287059861998 0.897241150377042
-0.172523955740343 0.050214609957432 0.892040575668203
-0.156403846353456 -0.000672503169985 0.916974731983279
-0.159449266164238 0.050607205053511 0.913709428968653
-0.137476170383101 0.025314397020020 0.870570890127874
-0.125666121208671 0.028884691266311 0.910834973964492
-0.183229597222369 -0.005675906787977 0.849863682666707
-0.187010290493450 0.045863867608509 0.844673340887899
-0.173844003714382 -0.002661435350949 0.869825882904862
-0.177570786915054 0.046833749708550 0.866901760752500
-0.146242796416023 0.018590862822130 0.821479781012782
-0.138990893611394 0.022241023839396 0.862206093786425
-0.194529746980849 -0.011065166743248 0.794892132954841
-0.193057452974637 0.041418033885393 0.791682487096240
-0.188601635905149 -0.006782560733315 0.819596173136043
-0.187571853726876 0.041541577796747 0.811119064147909
-0.148455105972061 0.010321906605852 0.769327029149054
-0.147590049008926 0.016504593014039 0.813448678023818
-0.197064768208362 -0.017689117061078 0.738980152014733
-0.196602040104019 0.033245666545265 0.733779327722234
-0.193736070944274 -0.013165912403579 0.764065556027345
-0.193818683135502 0.034588676215959 0.758828292520588
-0.148215755242792 0.004384311351098 0.715329604459438
-0.151443870292182 0.009147365905185 0.760691684120924
-0.199049207883458 -0.019796601480210 0.680505446060929
-0.194674755086902 0.030504988382488 0.681333065475168
-0.193106371371859 -0.020322973417674 0.709586684458939
-0.191302131098778 0.030524955075232 0.705719884825399
-0.145857938413382 0.003917090740888 0.658992832131200
-0.149462425620997 0.003918588242844 0.706764142855911
-0.187335747585178 -0.020915734608512 0.613766276396715
-0.187027012598623 0.032554319809003 0.616870597951091
-0.188291153832979 -0.022237030500848 0.641995186598214
-0.187883334133682 0.029086854030344 0.644633285877017
-0.130459125801873 0.006658018487324 0.602278439726441
-0.143292967146753 0.002351452446098 0.649952163240366
-0.170906903211736 -0.015955009796260 0.548278269616572
-0.168037689464420 0.036593831334778 0.554714533022608
-0.174055900241128 -0.017964657420945 0.576953185817241
-0.173214553725627 0.032853321032845 0.582452012998945
-0.113928700879097 0.012116163532562 0.538920130311108
-0.130179092936138 0.007198117526050 0.588769474583154
-0.143697043091160 -0.010122489262071 0.485616797778006
-0.142576162877243 0.044379593586650 0.496309960077068
-0.147994374536993 -0.015741865351217 0.514222828888708
-0.148441628454459 0.038803145886904 0.525446855631101
-0.087639554877679 0.024936527359840 0.480659067969665
-0.104792940614069 0.013582217947292 0.532196845696877
-0.111857406090564 -0.000094966582364 0.416082790296947
-0.124796322156009 0.059227575062083 0.427966716234530
-0.121621118842391 -0.005702861823182 0.450996299645486
-0.133454628880795 0.051449799487309 0.461041542765004
-0.064999072391573 0.039984924513691 0.422127456941541
-0.085190390428966 0.027296340858524 0.468991281481037
-0.089082148428435 0.010372572088690 0.353219654861666
-0.098492201135034 0.071440951429943 0.367810565168020
-0.103355338736500 0.006915089656403 0.387135827907641
-0.111417390099217 0.066623238054469 0.397563932360526
-0.038620076272807 0.057826162815112 0.360100177181256
-0.061928694214861 0.045503967971798 0.417179710479572
-0.044963993724902 0.023989357372795 0.290267917227334
-0.072604884825090 0.088523205823432 0.296510254130093
-0.057644091535653 0.021945267203126 0.317375697631256
-0.087098457504316 0.085590597826654 0.325142990692340
-0.008290669994637 0.076320811136582 0.291484387982763
-0.035037552427211 0.065559013331213 0.349224319643587
-0.023314108782558 0.021776049482120 0.225020009927438
-0.041604348087061 0.092459639297916 0.220716688473783
-0.036502358923644 0.022943601840327 0.254774375454581
-0.051464649715037 0.095397987718858 0.251368556839769
0.019468274176400 0.073695440624402 0.209470698369371
-0.001264141234356 0.072551848297488 0.272263700796389
-0.011923110572093 0.012249690790288 0.165368267436374
-0.031818671973215 0.079056747209832 0.147948076768192
-0.020855959322110 0.019999013827902 0.188012992844689
-0.036909929039282 0.084289767794381 0.170395631085660
0.031107608127869 0.051414109024029 0.124903019170360
0.022194975654256 0.065088048966113 0.190616649578510
-0.004611557272891 -0.013224564563514 0.092071037540386
-0.013092659599574 0.056815598578605 0.072201932007149
-0.010082431084754 -0.001716761200497 0.117059353509530
-0.017721188561298 0.068616912324960 0.095633594693238
0.024336653034711 0.019057584265021 0.048443314727378
0.024545304973886 0.042285337101462 0.107768102624758
-0.033524825868192 -0.045034251524995 0.024141603404968
-0.023267686221928 0.032720792109756 0.004636890014310
-0.025193473737089 -0.032478196792916 0.050024177625385
-0.029456362637938 0.042402891004992 0.030789264170431
-0.016181756550734 -0.012958508382700 -0.032780692187988
0.016181756550734 0.012958508382700 0.032780692187988
