ply
format ascii 1.0
element vertex 108
property double x
property double y
property double z
end_header
-0.064101077075646 -0.014787427659417 1.029016425093960
-0.064586637969861 0.057031756704395 1.031772009731044
-0.061387461049768 -0.014507725459413 1.040365746935940
-0.062565769653017 0.054059954032359 1.045478214403644
-0.041908181719141 0.021251125033507 1.005184894531539
-0.039345971442554 0.020570596034065 1.038926595445317
-0.071335881274630 -0.017265169465348 0.987487687432471
-0.076993143815657 0.057563801819883 0.989626492859288
-0.069863261144690 -0.015934658240444 1.004818333243783
-0.074119622068600 0.055511855480817 1.007058075836794
-0.053564299421524 0.022934650715967 0.957701926561116
-0.045698106685587 0.022457855417763 0.995014943789295
-0.092931122357620 -0.014279288714869 0.942178321648790
-0.101208501233736 0.054897201263522 0.936481215489528
-0.082402313427146 -0.010630675781094 0.962337864354737
-0.090590708222538 0.056751788880268 0.959065906425336
-0.067603596742562 0.025863422280310 0.910983690436670
-0.055214622088789 0.027127261850702 0.951419119213810
-0.111735185171238 -0.016121923246145 0.886591692977753
-0.115606656743004 0.044663766356225 0.879590903629865
-0.102536356217424 -0.010323083048325 0.910030099840262
-0.104265569248793 0.050344403819950 0.901010832792624
-0.073483983545702 0.011526094694879 0.855756185577985
-0.067086957826124 0.021930325912341 0.899952055044078
-0.120371422235583 -0.025190330756271 0.836018985225321
-0.119706830683435 0.037197603547360 0.821919391228688
-0.113977318381342 -0.019688723950479 0.862834005921126
-0.113516194906311 0.041285293154078 0.848999504797812
-0.077672875942735 0.000549709119573 0.803770357498843
-0.074634135992065 0.009499382647361 0.847023526957513
-0.121998901228393 -0.034359409808470 0.774101736865097
-0.118508865895190 0.027783087806838 0.766482574562212
-0.118342053946849 -0.028575710185579 0.804636823383378
-0.115128533324192 0.030643593971939 0.793363204416044
-0.074311933932611 -0.009248367852485 0.754482739246528
-0.075619601483060 -0.000366694099816 0.798841170675017
-0.115265064122675 -0.041391011554459 0.718676076411727
-0.111599716869241 0.017208591527455 0.712314113076195
-0.115044596101779 -0.034884283072677 0.748259431702451
-0.109027678500156 0.020055019614113 0.738997384207706
-0.064546528727505 -0.020838876396843 0.702929878485532
-0.069946135870618 -0.012414076133261 0.749175038049476
-0.105808314146825 -0.051490837528611 0.667213527852062
-0.099086961374820 0.004784554489636 0.663386415508597
-0.106980779019399 -0.043398598665225 0.695828151971450
-0.101141829579223 0.008722166467671 0.690539575711150
-0.053452206042225 -0.028866302974568 0.651960062671364
-0.061468742030966 -0.022036841185087 0.695420418944852
-0.093061809425429 -0.056817132414173 0.610049623147190
-0.086587221462355 0.005005819382897 0.609772842812523
-0.095121724488142 -0.053267862901861 0.639267745270767
-0.090044850652728 0.003100763183054 0.637228283265414
-0.034530206118635 -0.030414094730910 0.598155240607765
-0.047262632761587 -0.029045333632501 0.644027729529158
-0.065234229578229 -0.055750651566101 0.549608713654608
-0.065071401991712 0.006342174338475 0.554168948573584
-0.073455561764695 -0.054219594129418 0.580506642722943
-0.070821898599407 0.002583858642494 0.584044756022149
-0.013314276281234 -0.027300448777960 0.543373187400940
-0.027965837202473 -0.030002377342489 0.590898389606692
-0.047161429971272 -0.051338369282835 0.485853080749053
-0.047244835945443 0.015028083113552 0.496368342849329
-0.053899782687057 -0.051285775706765 0.519998264703484
-0.053854360962270 0.009324070727130 0.526923616800848
0.005446224176446 -0.017171935398679 0.488019511084513
-0.011012643267900 -0.024093834382464 0.532847034711681
-0.021742795282518 -0.049485375410818 0.426641479691061
-0.024511926749802 0.023589679799739 0.431153105395791
-0.029491582156725 -0.048940845961616 0.459352559013178
-0.033020664235798 0.020817360842996 0.466735315847872
0.029113864655864 -0.009345851905098 0.428128709147686
0.010689113087837 -0.015560659477284 0.476968219506927
0.005355115102751 -0.038027413303120 0.362890628019694
-0.001065551163646 0.032134542166267 0.368245610310384
-0.003237293981537 -0.043504317065607 0.397974793243846
-0.012947183745236 0.025460204863778 0.404097694869972
0.055136262972928 0.001328519043992 0.363952593257699
0.039909891452630 -0.006855360141333 0.418648584249139
0.027161527362383 -0.037262681457143 0.300666849423188
0.024025037734979 0.039635767359178 0.303941729217926
0.019186163112484 -0.038994816353849 0.333378725617670
0.018420103145899 0.037472258889055 0.340121062695278
0.079982743303838 0.005519270809876 0.287588314549840
0.069075951248380 -0.002085813414566 0.347357195014870
0.038565833397526 -0.027988946501049 0.231044376544694
0.037112072580217 0.044597891574077 0.235062472631562
0.035880373528534 -0.029160348877137 0.259046205815638
0.036297403399386 0.042954740758095 0.266027338978531
0.087582249421726 0.011028049466950 0.201868488656445
0.085939098605744 0.008733322680776 0.269055985212581
0.039967000638766 -0.028797771951205 0.160253423155448
0.033412725439223 0.050878042680168 0.160611218847193
0.045254780026700 -0.027635135171128 0.185239356150178
0.041922259797583 0.049210188820880 0.191436366906219
0.072170737888699 0.012585934939911 0.115262540693520
0.091022081795954 0.012932840042671 0.178036692469903
0.020991875890863 -0.041815478900715 0.091371510327869
0.014544381588188 0.052141616626438 0.086182277489034
0.030128548800231 -0.037080728933873 0.116413224388127
0.022609526791175 0.047412444766148 0.113175000722164
0.037189634823713 0.004962522651082 0.038319732648898
0.067391363069434 0.011210533238463 0.094474796940078
-0.020500205641851 -0.056023181914824 0.022799846474274
-0.026031296725137 0.049629874932948 0.015906900519740
-0.009039852917059 -0.054200469192665 0.045522927577417
-0.015731455787449 0.054259437747652 0.043004014032644
-0.021259625005397 -0.003045247741648 -0.024052529831561
0.021259625005397 0.003045247741648 0.024052529831561
