ply
format ascii 1.0
element vertex 108
property double x
property double y
property double z
end_header
-0.126955943859074 0.061100515984744 1.041057215698953
-0.129947741342160 0.135210362995166 1.038286316498898
-0.126427874806896 0.067979919656297 1.055648972443398
-0.128410106058661 0.134369269878323 1.052910139123139
-0.103003240634503 0.101681159320737 1.020946310263142
-0.106191759745219 0.102182252315309 1.052655648013656
-0.128631258832802 0.062102192991670 0.999516122915769
-0.139999885675642 0.133616485176471 0.996770418335554
-0.124786661641838 0.064518840567324 1.018963824520267
-0.134516365739605 0.130299702546575 1.017238629289080
-0.113454427027655 0.102824842366755 0.974011532905569
-0.104721564605734 0.101201698070470 1.015520305317848
-0.146262148406698 0.062450845811662 0.955942664132253
-0.154876417971599 0.124466257334998 0.947557436565886
-0.139659376571153 0.067635084202947 0.973115724200188
-0.148479274952517 0.128095300556231 0.968545572856086
-0.117912602283584 0.096404031674490 0.925452338796164
-0.113633843259840 0.101535335915003 0.965866544946555
-0.155806837467871 0.049932173645068 0.908351808694432
-0.162321046397315 0.106277777740225 0.892547401813298
-0.149559844203383 0.058222730518706 0.930848822772758
-0.154951238357788 0.112059052274357 0.918960016102135
-0.121033935741397 0.078600597128365 0.876476797231644
-0.117943904690050 0.088429043776611 0.917093069322965
-0.162590297991149 0.036889249792937 0.859964141592819
-0.168306677292363 0.090424254074960 0.845264989600171
-0.157502257239248 0.046473384976080 0.885522683718229
-0.163479489927683 0.099110799114955 0.870894789236237
-0.122873651971852 0.061380710696285 0.830013082917725
-0.122276615829004 0.075355326500233 0.870448157339094
-0.167046437318202 0.022683301570468 0.810363824354517
-0.169137590764826 0.075568335558871 0.794426318623124
-0.162741720201291 0.033356149719980 0.835927201811008
-0.165077694095239 0.082467335045855 0.819864995435968
-0.122428292530256 0.043513398881679 0.781243170169668
-0.123281346729244 0.058284317367201 0.823206972685703
-0.168092395778178 0.008422128777241 0.757976065994045
-0.168844417006702 0.061482761631188 0.743661704558936
-0.163645418131067 0.017939587289699 0.783707662073905
-0.165132155192668 0.067539395545781 0.770223705129040
-0.120067378507579 0.029063902667434 0.728542387744531
-0.121517214358305 0.041783877301630 0.772822568339083
-0.168227530557314 -0.006754703027907 0.700795985550892
-0.162972289146483 0.050329943249190 0.691321536035937
-0.163840867303150 0.003943594232554 0.728768121358643
-0.160571165528508 0.054105573349485 0.716838850601612
-0.114652316679993 0.015596742135795 0.676607878050049
-0.118110850857871 0.026148961499412 0.720786007709698
-0.158068499957849 -0.014880858644819 0.638014046805792
-0.153119665842836 0.041649251504714 0.631100795816677
-0.158229083847933 -0.008234059847333 0.666913802707610
-0.154232555464607 0.042948428618626 0.659622377929803
-0.101067326764663 0.007935287284800 0.621215852142126
-0.111017420163242 0.014450514178683 0.667789761106451
-0.144063599711872 -0.021754663511964 0.577278471072048
-0.137457010509684 0.039994041328634 0.577727647880286
-0.148322762920185 -0.016039302175187 0.608003691702189
-0.142535380599424 0.038603756397527 0.606741670290261
-0.083416077902008 0.005236409068729 0.565515383009509
-0.098710993581957 0.007073834879199 0.612233842924021
-0.125301242665213 -0.023428197047926 0.508885003362840
-0.120260028277458 0.045325884563419 0.518288704349359
-0.129299043504087 -0.021736340152081 0.546380705469676
-0.126504731121960 0.040234026444877 0.550801979514730
-0.067541176983548 0.010106605430912 0.507592951999994
-0.083727829511126 0.005839807489314 0.558962491431423
-0.097035424117118 -0.015889915893920 0.440892868133288
-0.101271428634468 0.051706485660385 0.452807632897078
-0.102866069926491 -0.018643764189639 0.480024948074102
-0.105062328201332 0.044295704552231 0.490275849964090
-0.042499760792607 0.021419244229665 0.442741491552575
-0.058894078065523 0.012374375707518 0.493330252260109
-0.066666491040254 -0.012185034322062 0.374027365045419
-0.080101331200988 0.065278751020241 0.381070152009260
-0.077768411200354 -0.016399916077325 0.407004323012269
-0.090022158121977 0.058216113749859 0.416592021070944
-0.019165979946299 0.035962647663309 0.373982065627930
-0.036933785737097 0.026021970435780 0.423829493733540
-0.042476856592753 0.002077410926712 0.302341036870606
-0.055577549926736 0.074778649646144 0.303323881535431
-0.052618327305664 -0.001931078538760 0.331747739062515
-0.063413331187728 0.067015398351355 0.339470526270896
0.003766722911463 0.050600721789680 0.299507787348728
-0.010745632606824 0.038055582547699 0.360342869106281
-0.014698388519319 0.004002890661063 0.234093138076024
-0.027103812142194 0.080016585661530 0.231827403728293
-0.027224695419198 0.007648984786631 0.266620664743526
-0.037251136150623 0.078935507428445 0.267299392532518
0.031547226913773 0.048763550470320 0.219210497993438
0.013538927024513 0.047604852448843 0.282594817194685
0.003101228660164 -0.002708803369341 0.165153277954755
-0.010505901981691 0.073943155333710 0.157608634523012
-0.002551782354789 0.002816962090871 0.198167900605809
-0.013402774280940 0.076276329825454 0.188482732452202
0.041569086805226 0.034826599350575 0.130073205459135
0.040058427579333 0.047994478337461 0.200061823442584
-0.003495435388754 -0.023222822722573 0.096466890978532
-0.013024346001138 0.060536563686129 0.082180014583248
-0.002683608749502 -0.014527116002637 0.124369041731176
-0.012148133111187 0.067347000267012 0.110214755203931
0.024054499668364 0.015587071473635 0.051262398674337
0.039578457346848 0.032035340861762 0.111973797752680
-0.027162090606265 -0.048988011628884 0.021993630663768
-0.026062180031078 0.050041604822145 0.003308638914393
-0.017371817624442 -0.038186645469083 0.054710753207836
-0.015933942855861 0.055590528973320 0.035319294138535
-0.017594751836349 -0.007891005831750 -0.025920682974206
0.017594751836349 0.007891005831750 0.025920682974206
