ply
format ascii 1.0
element vertex 108
property double x
property double y
property double z
end_header
-0.017666562154331 -0.098546290169732 1.024742895440911
-0.019030976308038 -0.024901504172842 1.023858509143708
-0.011874068374575 -0.097651262860932 1.036342543949736
-0.010246703000951 -0.026427188768980 1.036842435027888
-0.005479766272256 -0.061865540858994 0.994250958475201
0.010118301461010 -0.062186426475386 1.024525345870477
-0.050506142745345 -0.096757181419829 0.992145456980469
-0.043929288177401 -0.022478664065584 0.993701645809852
-0.041264305939572 -0.092263363988799 1.009708801322306
-0.034070509165905 -0.027877913350087 1.012669130748693
-0.031579330117499 -0.060992741441086 0.954945189836855
-0.014290523874874 -0.061537561234871 0.992157280326688
-0.078336408010169 -0.090212249886676 0.944697186267819
-0.075016412391791 -0.030057665459076 0.943777802865807
-0.060456670923503 -0.089051906688715 0.964420892430846
-0.056509801488578 -0.030627077812997 0.965185862931234
-0.055811751127791 -0.059498506945892 0.909006051035636
-0.033391376159068 -0.060671855824694 0.946053087612248
-0.101353389029117 -0.088899149055562 0.896274435359776
-0.103701742055193 -0.031952474924180 0.891760045306325
-0.087847107708969 -0.087481056910019 0.919340365032073
-0.087904096237746 -0.033137883616127 0.916841619042087
-0.074143376506958 -0.062058734336218 0.858552285714043
-0.058581961146972 -0.059574885762468 0.901422320303657
-0.122044717846731 -0.092474292485352 0.846006296573825
-0.124191128119381 -0.037986401433735 0.837557806299366
-0.109911127022642 -0.089566695183103 0.869508034787765
-0.111111433130825 -0.036902200585425 0.861003028918378
-0.088434964482992 -0.067645265424834 0.810984835671503
-0.075236326631470 -0.062627200822441 0.851859562353149
-0.137803110154730 -0.098072173986339 0.792298036971908
-0.137867665625088 -0.045258232292449 0.784878650752377
-0.129797995363495 -0.092955975610326 0.818119042780225
-0.128200424822344 -0.043101890408975 0.809634136599411
-0.097160593992831 -0.078413023293670 0.761653342373044
-0.089841233282315 -0.071272668044913 0.802554316883298
-0.153816413807218 -0.105036597843352 0.740178598634941
-0.145646481569686 -0.054204721909665 0.729898672031113
-0.145987230407726 -0.099294707985414 0.764644648966526
-0.138369448438634 -0.052055710500846 0.755368524456717
-0.103464092796186 -0.090858041057174 0.709929276733650
-0.098790087568774 -0.083097669532678 0.752119705382579
-0.160627607097229 -0.116901798708262 0.681923553010932
-0.139137493009040 -0.062298984731394 0.670436226291190
-0.152555099232544 -0.109981594166109 0.710379273290756
-0.134115172002008 -0.058790288507356 0.698244263665121
-0.103615195160868 -0.103403320796618 0.654487241642136
-0.103778593805619 -0.094894294989517 0.702730041220721
-0.154171114193797 -0.126295920213340 0.623670635589243
-0.146239304149121 -0.069798060304443 0.615259980022686
-0.151357630727453 -0.120879172376433 0.652729819460100
-0.145038998040938 -0.067486359651647 0.644501006958396
-0.098786540564908 -0.117265011904119 0.602801956578340
-0.102937717422503 -0.108908743730171 0.649077351346035
-0.148664981859471 -0.129142036115249 0.560543188988263
-0.124274600943690 -0.075517249337640 0.559334133603879
-0.147377892390039 -0.125796502069037 0.591586330354718
-0.127712830024260 -0.075415805027079 0.588429733381091
-0.083448822915391 -0.119841082578379 0.546732101802582
-0.094801599955158 -0.114743328622468 0.595899014121668
-0.131481166931274 -0.129863969635399 0.495191770963435
-0.102674293268737 -0.068672714211291 0.505733702919482
-0.134328701634729 -0.131174469330345 0.533455902799861
-0.110216642288949 -0.072826965138902 0.540296654455420
-0.064963966969223 -0.117354159934612 0.488770275164812
-0.082308106472154 -0.117380880697068 0.542455833941987
-0.103596041339993 -0.119515467623499 0.432969519749005
-0.078702931742967 -0.065204690298247 0.444286590283188
-0.111422150669468 -0.124236529768863 0.465612832792778
-0.089399276600638 -0.070865235534197 0.477369258872471
-0.042117005668907 -0.110378622132153 0.428548770597610
-0.063594114076255 -0.114137973296040 0.476997769334261
-0.079139213218459 -0.109629731382623 0.364206120472212
-0.055670580373933 -0.046639435597787 0.379196941143655
-0.093664194048861 -0.115468099745711 0.397642543580375
-0.071747257162156 -0.054093109521355 0.411439206283670
-0.013274189033864 -0.098142641129806 0.365050780326118
-0.037251935166592 -0.103308497559940 0.419262005076204
-0.048110969268241 -0.091829683649476 0.295170547765451
-0.042425595005231 -0.027981485862968 0.309737619708394
-0.060750362843590 -0.097181639549101 0.329899972016157
-0.051675471686433 -0.034392813583842 0.346557648037596
0.010122084931800 -0.070458985358102 0.292284468953321
-0.007820315889828 -0.082247570939511 0.351623242491790
-0.026894210944642 -0.066935155250903 0.224828968235307
-0.017302166623853 -0.000181015430617 0.244081159351108
-0.036888012569962 -0.075503297789101 0.258322143405323
-0.024535216906968 -0.009512000266884 0.277936838316208
0.030051517319042 -0.032112326565065 0.215901868905891
0.017542180552104 -0.049598346222628 0.277579063859612
-0.012936277798916 -0.057308113825305 0.147168973862344
-0.012429765646882 0.018763059282709 0.163388949606745
-0.019973769935565 -0.061805005326352 0.180941180003136
-0.018152501683944 0.010481278189942 0.198797033930438
0.034511992913733 -0.017307368896189 0.131769538345562
0.030850066122693 -0.028379696163634 0.198642857495739
-0.012184076512445 -0.055828776746347 0.072470727717314
-0.009579629807259 0.042966867795150 0.084604791475251
-0.013400225904561 -0.056728296926711 0.103116368183876
-0.011278171725122 0.037380100239609 0.115497539877796
0.024518191288412 -0.003253193712239 0.044803861097242
0.035460934681294 -0.011067243228570 0.106453389420810
-0.030600593517466 -0.051917140883156 0.009200455094006
-0.040388905385495 0.049691514190836 0.021586356126414
-0.027831329365983 -0.051311076155955 0.031980732721644
-0.032602286032393 0.053605751190195 0.042116414501596
-0.018419945775425 0.001659406641878 -0.025486168643386
0.018419945775425 -0.001659406641878 0.025486168643386
