ply
format ascii 1.0
element vertex 108
property double x
property double y
property double z
end_header
0.002527028878096 -0.003776734016908 1.059822438272691
0.000083440322061 0.067184656795503 1.065451372083150
-0.000086070664963 -0.004099389412897 1.076071819940796
-0.002358979192685 0.064521872997628 1.081729395262856
0.027928834804163 0.033306132476989 1.053678249513746
0.020748583202119 0.030690987111673 1.082405101128369
0.004661406012976 -0.006538886324419 1.022416916382805
0.006074192411717 0.076035468400692 1.026187366802780
0.004170993191899 -0.003225531048761 1.036557639824407
0.006196064966180 0.072099306377886 1.044119875667897
0.032506215974433 0.036168530075101 1.002404390802785
0.033056834421936 0.034308000862360 1.040166178025743
-0.003011888753047 0.000026157298860 0.976078165476798
-0.005336819618166 0.065632462222952 0.973239148704482
0.002213725812426 0.003190459810066 0.998262477512971
-0.001191106944160 0.067051678348787 0.996530250581787
0.033134575667709 0.034964125286269 0.953135730164179
0.034132936929211 0.036057178892246 0.989729352878289
-0.010504858900116 -0.000467178125442 0.931345385042674
-0.012320672283521 0.061615636351148 0.927707620809092
-0.005468921283916 0.002495757023594 0.955350771148056
-0.007103825527722 0.063251709636244 0.953484688989189
0.030240613954772 0.031301226664956 0.906683289992738
0.031902406148244 0.034497970071955 0.945674324131936
-0.016656061906800 -0.003310871062917 0.881123078971902
-0.015896185068420 0.055333208459682 0.877610402156330
-0.011269119643332 -0.000359334066457 0.907166688566077
-0.010751526612267 0.057206597126611 0.903799265130765
0.028217880263069 0.023409905698383 0.855812166006118
0.030130431813207 0.028167026966962 0.897129592312047
-0.022898157873766 -0.008652220716082 0.833314843164597
-0.021763311041679 0.047038568248123 0.822624545089884
-0.014358603511991 -0.003184906863940 0.860239909891292
-0.014946046760123 0.049558436748319 0.850163650754055
0.024079181836802 0.015121695213918 0.802842905164603
0.027927958023195 0.023280434375536 0.848205506593615
-0.025026982062519 -0.015356672513170 0.784492464038378
-0.026165920539122 0.040400167283908 0.776685021784349
-0.018684348544629 -0.008691091338968 0.808328339156737
-0.020222222361380 0.042281446979543 0.800769025916472
0.021380157758942 0.009192317791976 0.754240013540547
0.024218590010612 0.015940608637433 0.794868290006131
-0.031718866665743 -0.024522248485642 0.729608898084791
-0.028382422824611 0.036552852399127 0.725210380231863
-0.023678200674396 -0.017391388878093 0.759104102087145
-0.023781076307899 0.037470842071955 0.752386206315223
0.021234027597715 0.004645039434918 0.702322889859865
0.022024884030275 0.009698220410144 0.747760894452070
-0.027216888658665 -0.027751432788433 0.669994806551968
-0.024269443306719 0.031897729983084 0.666136970295579
-0.023203569910731 -0.023017692345650 0.700601476560613
-0.022240572148246 0.030964542773490 0.695180047579096
0.026438014899326 -0.000810291744003 0.644730655237777
0.023545806748324 0.003426898410931 0.695935248252316
-0.022509451644903 -0.034017786362164 0.608532753000270
-0.023154762436881 0.032002943699168 0.607810577743486
-0.017694462832478 -0.030051521526144 0.642200557626295
-0.019120693206052 0.031382475034598 0.641783209885831
0.032041814322054 -0.005279244334643 0.586919225373849
0.028732550690910 -0.002676666163193 0.639174786507932
-0.017996952266217 -0.035100903117177 0.543856420422225
-0.016172371073139 0.031104243207622 0.543607122367173
-0.015054475339753 -0.029536266577658 0.580180871379355
-0.013120881046399 0.029291936948087 0.578659364140661
0.038314305362556 -0.002741255694455 0.525004168322348
0.032597401195039 -0.001975533649626 0.578696188941291
-0.007808465165158 -0.038525609575690 0.476452714515043
-0.012522916426659 0.044341005471875 0.475424542700651
-0.006910056933935 -0.036236042209588 0.515757928500878
-0.009611419094375 0.039265612712143 0.517432580148539
0.046588779611866 -0.000705370288242 0.461459759973166
0.040646834996059 -0.004925317084152 0.515655052867375
0.000073503471097 -0.038579093214699 0.400813697241759
-0.002189468205662 0.039469318156893 0.403783938898856
-0.004096174549350 -0.036765325653551 0.442179346500893
-0.006334888619346 0.038758541052686 0.443833247665659
0.059377506801797 -0.001911528639009 0.392015784754934
0.049852450632707 -0.001289598672827 0.451301083424997
0.008549637342900 -0.038840373942973 0.327815544242167
0.007538416627210 0.038136903346827 0.332082252689669
0.003798945801415 -0.039410866092403 0.367518232266540
0.004654391765237 0.037622525179308 0.370763490887066
0.065035082123856 0.002520891411325 0.312881041764781
0.059648432120711 -0.000367809615808 0.376782299967678
0.022193518236331 -0.035798528506874 0.251517479941750
0.013894201859612 0.043365440515524 0.252331424939784
0.017521152461263 -0.035576995182454 0.287115371737260
0.011630645662208 0.041902385341321 0.289813226773830
0.071935932857634 0.011042910153753 0.224321487896140
0.068156714627985 0.008097510624064 0.294142186670015
0.020235666336213 -0.037818339595352 0.176284119996032
0.021357361453790 0.049229936145881 0.176797329122260
0.020020854999209 -0.035880069136839 0.213854768968104
0.023180189084934 0.046442941710962 0.215622943918950
0.065813663622873 0.005170231234368 0.136538469704258
0.074446156767189 0.006719795464018 0.206833214721153
0.003619790223751 -0.047526935246943 0.091235489381027
0.007933552583168 0.055061114099478 0.092296978872179
0.012625792060163 -0.044644371686582 0.123699765999188
0.015826042591031 0.055101446023976 0.123772538819479
0.031104243207622 0.001653462774282 0.048791399532039
0.061898836603605 0.001847231368069 0.108031105591799
-0.028019143243801 -0.050391963187957 0.019114701869441
-0.023158269560750 0.054102792502152 0.014693387711361
-0.018401440552493 -0.051760910538330 0.044503356080997
-0.014726266997638 0.055880319783315 0.042490559240259
-0.020378581633893 -0.001035624452615 -0.024714994168300
0.020378581633893 0.001035624452615 0.024714994168300
