ply
format ascii 1.0
element vertex 108
property double x
property double y
property double z
end_header
-0.134127849143193 0.009920887646488 1.036467172316997
-0.132537773402016 0.079268307037898 1.031307555661528
-0.132130195928671 0.012680509565404 1.049507998005726
-0.130570984742609 0.077328524864217 1.045551823423346
-0.109414710093409 0.040564154924068 1.017596803780979
-0.105487471031449 0.043764699058908 1.047087335040302
-0.140953876198470 0.007070325520538 0.997078764039329
-0.140386739998238 0.072041040766130 0.989095591743636
-0.137228359050295 0.011503247248886 1.013696020051974
-0.136756572279256 0.072552234960217 1.005188701472101
-0.113299785968472 0.033343502485539 0.972604825291684
-0.109496556279740 0.038838771177880 1.007426657294301
-0.149460919201959 0.003485352328689 0.950870115810468
-0.148378179585480 0.063145710636243 0.940699693747406
-0.145620486701258 0.007200121997850 0.968758605686900
-0.144557864160881 0.065373194555816 0.957418361869713
-0.116794645682441 0.023254099879652 0.922284301822945
-0.114111633998542 0.031673234016341 0.961151044003897
-0.155809647958498 -0.006680936088600 0.903889026974585
-0.154950400790215 0.051850936922574 0.894579505538115
-0.152982785401654 -0.001591315834909 0.921181720706749
-0.152870350236593 0.055463743329303 0.908649884601027
-0.122161771355779 0.012988052811011 0.871711901538359
-0.120673658877035 0.021728784588939 0.910545023400346
-0.159791451144679 -0.016888560963631 0.855028507193325
-0.159114911119620 0.038239392540608 0.839647211267193
-0.158766306992655 -0.011164563871779 0.871767292391734
-0.158237475909931 0.042309931322743 0.856002394137747
-0.119534150525255 -0.002133925736881 0.822414868763333
-0.119822679000301 0.008077832783925 0.861538448135061
-0.159437886642784 -0.034626310557493 0.800584809852924
-0.147934226029321 0.020761787054140 0.784288324752364
-0.157885840442731 -0.028496389450607 0.818585183741646
-0.148538013888752 0.024181689991403 0.803469267874223
-0.113944910285646 -0.018377775747915 0.773139330946334
-0.118008008505388 -0.007062058228989 0.812107760813334
-0.150584995276181 -0.046832690952586 0.745999190674272
-0.140588186335638 0.006478387445659 0.735205414828447
-0.154978509581481 -0.041513239993845 0.767773583154921
-0.142329277935769 0.010303112092417 0.756356729102718
-0.108024978384093 -0.029656290454872 0.722024871912546
-0.113208294608667 -0.020905086774316 0.763329638371175
-0.142025317183166 -0.058772313407045 0.687384093594843
-0.131880799300289 -0.001976296044688 0.683498742143395
-0.148099571860293 -0.053388928726995 0.709201751567929
-0.137072382816412 -0.000625145029265 0.703122260939489
-0.096317666822149 -0.041066806250222 0.670562635480948
-0.106469900843805 -0.033002614497352 0.713074977658439
-0.133546658547328 -0.064539024838564 0.628090251879275
-0.123051056350021 -0.007090718173024 0.627759009064562
-0.138305587139075 -0.062565897922303 0.649128028682946
-0.127797584004446 -0.005219554519196 0.648677736869933
-0.079533962672993 -0.045303517592484 0.618596369841271
-0.094562245250001 -0.041854679134801 0.662209364100263
-0.114831163939653 -0.068615901877554 0.564073030925619
-0.101792542862004 -0.009004871742905 0.568487764612561
-0.122873585158112 -0.066509395990976 0.587116452658975
-0.110615396402648 -0.009455714708688 0.592704315016660
-0.058592362027671 -0.048031999379900 0.564371755726908
-0.077119362388038 -0.048699996537025 0.608343550439108
-0.087169908723646 -0.062755770051535 0.505131375830021
-0.080210227121667 -0.000098518557621 0.520460863395782
-0.096896101654165 -0.070261644048491 0.531952123071923
-0.089586989196066 -0.006074668041704 0.543809072610896
-0.029657943913182 -0.035445599149958 0.506930889623762
-0.050506675316775 -0.045919155236468 0.552358003224897
-0.062012264964933 -0.055047347411640 0.451392602882329
-0.059484402785763 0.012975376297303 0.466404626452624
-0.073334596317098 -0.059373621079012 0.474885765275927
-0.069782416715058 0.004395581128187 0.491517075684205
-0.004227479533366 -0.020174809354191 0.446571669603967
-0.023237565296555 -0.031591938982780 0.494311420227625
-0.032971749942238 -0.046716397718136 0.379840296834912
-0.031030038733861 0.028358325681745 0.391217467887682
-0.042523227444697 -0.051863889012667 0.409663448790873
-0.041312069232830 0.022165848735474 0.422398109115920
0.025982581667068 -0.006450554230779 0.376719118698938
0.005390963030636 -0.018017046260012 0.431972459458330
-0.012984194741622 -0.040549549375666 0.312359080722401
-0.013161941509916 0.037343218136742 0.322688785935966
-0.020095994508095 -0.041642760894773 0.343454568847688
-0.020122449841050 0.033585734127912 0.350698369702554
0.045422566590783 0.000635065779123 0.301220834395385
0.030660766378025 -0.005063853861697 0.361966963659653
0.001922007496852 -0.033497549684727 0.242149933975244
0.003032304751826 0.042082580805157 0.243868152735423
-0.002754248179409 -0.035539019544457 0.268029587862532
-0.002329860546582 0.037510493002408 0.272771706294798
0.057469939411759 0.008590129283552 0.219764037496385
0.047746502245089 -0.000459248045524 0.285222798519728
0.006785103962112 -0.026435353667546 0.164497744646900
0.004512701091792 0.049212844189422 0.164133432665993
0.007935084216519 -0.027641551504483 0.194045320217909
0.005657169818500 0.046311851585026 0.191773468500359
0.054834326866071 0.011327153938901 0.131829542092688
0.058081994562738 0.010071352352672 0.204931965305463
-0.005460683856029 -0.034207158875980 0.088319888978053
-0.011731975648397 0.053576320668763 0.087306870186967
0.003862616399689 -0.028833143793019 0.117318791966621
-0.004104296889292 0.049953042359405 0.114311426877633
0.030342475653404 0.005706497991407 0.044394942251295
0.051456862692092 0.010300907481338 0.114590861331975
-0.037526476432735 -0.048916048422828 0.023362952551708
-0.052982177982805 0.049444052776398 0.017532582975265
-0.021670913548099 -0.038141011771179 0.043141896428915
-0.038926404468295 0.042546651437418 0.035174156410779
-0.023654236790603 -0.003764786783031 -0.028139793608478
0.023654236790603 0.003764786783031 0.028139793608478
