ply
format ascii 1.0
element vertex 108
property double x
property double y
property double z
end_header
-0.142765300605315 -0.052183627418349 1.055827991647714
-0.147331673304351 0.015839417548488 1.059208951652498
-0.145872764115854 -0.051872776579618 1.072984084534540
-0.146260413397095 0.013916321855432 1.076471883188938
-0.120568983404782 -0.017371990549189 1.037803606165978
-0.121405146039048 -0.018714395977960 1.073346134334944
-0.146349750360831 -0.054121351386168 1.006402185851130
-0.146160627665671 0.019575896873871 1.012104600817091
-0.147236850737579 -0.051835944673516 1.022562511177249
-0.146537305740839 0.017442258511893 1.030474318070928
-0.120222345536718 -0.016437087060266 0.990918418232837
-0.119529069800591 -0.018196137100614 1.027403425247299
-0.157181204165851 -0.045282216360140 0.962413135102029
-0.154315629627299 0.018995467828779 0.967536165899667
-0.153732065951900 -0.044767092113101 0.984888434399843
-0.151616712933377 0.016509967214893 0.988142180658020
-0.119644528683548 -0.015134386948711 0.941606504004057
-0.120172452671006 -0.016047870463872 0.981501466353639
-0.159188151219606 -0.045082644897291 0.911718065250493
-0.159539491033129 0.013385785676052 0.909642678768379
-0.155945637386694 -0.043669187848239 0.936233225220282
-0.155652810672225 0.013370112524520 0.937023674495911
-0.118281486938592 -0.017076551642798 0.890292083447790
-0.119650014286584 -0.015173831046735 0.931784662376932
-0.160756250030447 -0.046331533855251 0.861001052986812
-0.158234178729652 0.005236269317461 0.855354016489600
-0.158236007263998 -0.043043829102086 0.887046957422955
-0.155910111576553 0.007348487705677 0.881354468786298
-0.115226789704879 -0.024014272168724 0.840186585313074
-0.117827749201722 -0.018886539425627 0.881182586557824
-0.158595444872480 -0.050289788274821 0.809609833988035
-0.155935188619005 -0.000250639814926 0.805851412250506
-0.156840051900823 -0.045865518816347 0.835068256460896
-0.154587297587198 0.000260043705846 0.829675125018513
-0.110779010519107 -0.029576673647660 0.791849541109625
-0.114716367403300 -0.025022317031465 0.830814563134936
-0.149244842668103 -0.058976893730982 0.756013925006998
-0.149666972882716 -0.005172009396177 0.750199185788387
-0.148978137872856 -0.054647708058473 0.781364202734285
-0.150865185317387 -0.004278378539624 0.774668371180346
-0.099738581360319 -0.036645003769691 0.738124067409252
-0.107643596555001 -0.032156735609126 0.780059151650000
-0.142988120576271 -0.066620950952646 0.698945106865520
-0.136588511586299 -0.013314995274963 0.695324608861479
-0.140026156155793 -0.061160163739479 0.726569036441809
-0.137942933097912 -0.012577834714545 0.721899482161849
-0.090713458269437 -0.046798593770924 0.681202054453796
-0.097438546372903 -0.042292562705288 0.725065458771443
-0.132646191537454 -0.068680403064035 0.641608016613642
-0.130650215689772 -0.016741668638384 0.640135262807957
-0.134423004482872 -0.065179543450027 0.669993661354416
-0.133184303073409 -0.017844797287090 0.667563800428472
-0.077076249120881 -0.044023401072877 0.629045724441033
-0.089126290457564 -0.042475416139836 0.673615465454419
-0.119156571232498 -0.069690798899506 0.584534235307511
-0.113747505419390 -0.015238874625596 0.582433249344560
-0.121226733330769 -0.065237272891505 0.616205233828721
-0.116923408358288 -0.015863188494979 0.613380670703346
-0.061457169961023 -0.047012009850960 0.571551902673828
-0.074501411543260 -0.044132590695221 0.620117513670462
-0.098721916264234 -0.068182258064489 0.521140516865033
-0.094497218268610 -0.008811053962865 0.525558255843702
-0.102610163940292 -0.066581506854622 0.557009307805070
-0.099313316515400 -0.012969402283668 0.560201928772271
-0.042437539356965 -0.045153696517573 0.516770319779347
-0.057861748999434 -0.046982753301432 0.565782615594661
-0.075377540713935 -0.067189102695704 0.455006347877072
-0.073611176536206 -0.003976409153428 0.461118876974805
-0.081546493157184 -0.067115438883501 0.491944570190021
-0.080310142720451 -0.008033404427654 0.497825136645069
-0.020674323577117 -0.039941589975391 0.456368344745260
-0.038261689350284 -0.044613495228081 0.507770012511725
-0.056811386627555 -0.060089687489800 0.384594192178276
-0.051053070754460 0.003870876599775 0.399055809097449
-0.065557005182771 -0.064914144750740 0.426500803527073
-0.060020986842248 -0.002420065206237 0.437998105053037
0.002123581423077 -0.031312997618285 0.382261243572642
-0.014752484489699 -0.038691656140663 0.441657524716718
-0.030574008523521 -0.055477601432126 0.315725058247868
-0.026995566809426 0.013747835476457 0.324661889251783
-0.040223184264594 -0.058244957554407 0.350476092264436
-0.034350976823696 0.010786915932747 0.360026004712469
0.025789517798988 -0.022595851955020 0.309140506069812
0.012012033944216 -0.029318327866564 0.368887604589027
-0.016440744128957 -0.046967341369092 0.244277952109533
-0.013133447936377 0.019342889354419 0.253650757945248
-0.021986427579592 -0.050136975047377 0.279725135273342
-0.016471567993638 0.015378104455044 0.288588302465054
0.036370723617870 -0.012905142362385 0.225366466251050
0.030146915144256 -0.020251670924120 0.291010849253616
-0.009845481964020 -0.043657694203781 0.167415772116668
-0.010663359254832 0.028699499600216 0.176776561869541
-0.010471885586941 -0.045360843336996 0.199946965437829
-0.009068354867193 0.023572811733888 0.210024279434936
0.031258141587921 -0.005571152321875 0.140724917494957
0.039220886224082 -0.010929541611695 0.203847229196727
-0.015803108080771 -0.038782560419552 0.089459867366017
-0.012701913830845 0.037130087809627 0.089156591883861
-0.013165839116211 -0.038242097910868 0.120163309999278
-0.011274350945413 0.037285252009800 0.121708682740397
0.017322620121861 -0.001172743563430 0.049773357931820
0.034847815727281 -0.004063395144435 0.112748080789991
-0.034203387980097 -0.047478286109056 0.008186740093482
-0.035381747756160 0.045664118819152 0.014781479820034
-0.030574792181097 -0.044867661502102 0.037998119185343
-0.029371094143390 0.044152965792213 0.042777646745223
-0.014500669188408 0.000680867824497 -0.029771020726665
0.014500669188408 -0.000680867824497 0.029771020726665
