ply
format ascii 1.0
element vertex 108
property double x
property double y
property double z
end_header
-0.146166480230697 -0.013666371876349 1.037459230852619
-0.149461248139455 0.055763201126354 1.046775153217840
-0.145574235530061 -0.011855740985257 1.054153535113262
-0.148638234098049 0.050625532583201 1.061363517760015
-0.125771731288333 0.025026948565195 1.027753630998928
-0.127353491058850 0.020214689198215 1.055224673651500
-0.150771833596494 -0.007372687234839 0.996488588526487
-0.154569087508126 0.062139593933475 1.005780647552123
-0.148858427640593 -0.008585649939026 1.011741058962368
-0.151791720189484 0.058892010355263 1.021559738504779
-0.131946912754853 0.032777110444395 0.977762103960639
-0.125618517801218 0.027113092558781 1.011561541566846
-0.171734150376967 0.001664739110441 0.950819851219350
-0.170565117911564 0.065185966171087 0.957450334358200
-0.163765422001104 0.001999097038960 0.972544981343637
-0.163351609998736 0.063548073317680 0.980079559643622
-0.139713345092862 0.036903027623962 0.929016080544154
-0.132957037072559 0.033727847587449 0.967363382561700
-0.186403053690244 0.004527797512142 0.905395170794343
-0.187948476102755 0.072312698303601 0.911057832808389
-0.176961306443568 0.002557444950411 0.929624053354972
-0.182148599886088 0.067294888807005 0.933473915083418
-0.150240060767763 0.041900227872734 0.878927201927326
-0.142537896742049 0.037398463094686 0.921607327125622
-0.195981743965226 0.005062824432634 0.860950243163932
-0.195428819540045 0.067168250402611 0.853193573101208
-0.188592786271579 0.010070600479631 0.884232456196209
-0.188675765611503 0.067612705102401 0.876266168389167
-0.154145513230473 0.030594970743838 0.831006361946754
-0.149786928489942 0.039506029859037 0.873425888629799
-0.202063641467910 0.000063454789354 0.807768079153260
-0.198678572512764 0.056447373919259 0.795446189523135
-0.192527254385830 0.006678209818022 0.831564981032519
-0.194005967917226 0.059268671476684 0.820424055537590
-0.156035869369728 0.021274709589600 0.780081995270101
-0.153856712586619 0.030594699569524 0.821112838293824
-0.206394566428466 -0.008510534654192 0.754042210644066
-0.197679295167598 0.051013854200101 0.740985980973042
-0.200989248837910 -0.001202115731648 0.780625157419997
-0.193833501053854 0.052700558429934 0.767177894388938
-0.153655501246018 0.009942606203670 0.727166666783892
-0.154409908186114 0.019728473654149 0.770633739839901
-0.202863063344043 -0.023714193713648 0.694758895754454
-0.196689508923404 0.037005531514457 0.686216904879898
-0.199886111730682 -0.015357414895197 0.723711634855869
-0.196095637176887 0.038788231451261 0.712872797546155
-0.147422017302100 0.001913134781587 0.672630258251712
-0.152677646671617 0.008961497537506 0.717180943864379
-0.192925338278016 -0.030519855459004 0.636583599109713
-0.190291422171205 0.026287637948554 0.632713670482069
-0.192587455083422 -0.024616390654589 0.664948161125195
-0.190077736812184 0.026070969672085 0.661004744258598
-0.137915459394503 -0.005262408727353 0.619941089142944
-0.145351059070069 -0.001430444503596 0.664391440259624
-0.180004695763731 -0.031766443778063 0.571442376700350
-0.176701250276943 0.029824835693560 0.575265392171762
-0.184584829918374 -0.027656254708677 0.603153500918463
-0.180888724025670 0.026104866461270 0.604346125549139
-0.122373103617514 -0.001020157767304 0.565175538315874
-0.136458982156813 -0.003175993559454 0.612323531503034
-0.150863761688763 -0.021103598597796 0.506404200530109
-0.152828419589910 0.040619471590178 0.521588606213307
-0.163783861854420 -0.023169404517871 0.543047443161759
-0.156866205117597 0.034273179131853 0.554386054731213
-0.099743607157778 0.008675679811100 0.509268072454750
-0.116989208797722 -0.001465697164348 0.558840092830089
-0.125834101380433 -0.007288352023347 0.436753349287607
-0.127368405646091 0.059637468543014 0.458521867302051
-0.132529124005891 -0.014371153917078 0.475052382277354
-0.134937694258202 0.048775852590968 0.489971308307658
-0.071786620135454 0.029195711286291 0.447481276303109
-0.089372274364500 0.014107301310064 0.497063330128047
-0.096431755267272 0.009614214110048 0.376611767695838
-0.105292375960164 0.075057253530312 0.393132249221542
-0.104772263626913 0.000248124496832 0.409281221937782
-0.112851359948362 0.066966225539070 0.431413655880913
-0.045702634096322 0.053185146928119 0.379697189034590
-0.060822229118599 0.034151150690788 0.433713485233520
-0.065580795971511 0.018719162859384 0.309309557182369
-0.079669657428258 0.093311894790708 0.315535990594137
-0.079230083866110 0.015225081830220 0.342858972071549
-0.090277454222889 0.088873042453387 0.352773104972304
-0.016631934168544 0.066900059006581 0.304658646531908
-0.037105866010444 0.056770071352298 0.366904540796267
-0.043548967698680 0.023639620777441 0.246849164036050
-0.053825118307927 0.100642821181271 0.240761300698470
-0.057916596349683 0.026640706904702 0.279131923706974
-0.062738617991948 0.097463031181428 0.275010345316423
0.004756668632717 0.065394770392465 0.227625345779283
-0.011721509700085 0.066781827005905 0.292196559781716
-0.026043309892110 0.014668632138963 0.175848949409682
-0.033130992923484 0.088941378380383 0.157085042788574
-0.035847074847279 0.027129905366216 0.205673242754615
-0.040025057495034 0.094592379898951 0.189608876424180
0.019502043102395 0.046643880138404 0.143469109334532
0.010014738571055 0.066940735153603 0.205579958790779
-0.016624612462080 -0.012853391284542 0.104786364691214
-0.022866231635402 0.070192657520830 0.077176480790142
-0.020686532503666 -0.003033627044878 0.130377627002757
-0.027230239862203 0.072516621387336 0.105207227225732
0.017512165990093 0.021832515152424 0.058878180465276
0.023343769601437 0.041655086293350 0.120190150394017
-0.029500782388954 -0.050559094876399 0.027641068947122
-0.030932311589804 0.048523389305120 0.009019528840591
-0.027617476781850 -0.043890104985035 0.052970648046158
-0.032494004461124 0.052030757875644 0.040503680158323
-0.011276512651668 -0.009884574900585 -0.027570563625618
0.011276512651668 0.009884574900585 0.027570563625618
