ply
format ascii 1.0
element vertex 108
property double x
property double y
property double z
end_header
-0.145712548734599 -0.012472039297364 1.038003220765781
-0.151738995815512 0.056283008903568 1.042333553402228
-0.150043596026008 -0.012488714579824 1.053515521383019
-0.154728159305562 0.053993730840180 1.057532358709224
-0.115432141534466 0.024381049593395 1.025335723336158
-0.128925541882483 0.021719912731158 1.059067914005436
-0.137571914056125 -0.008629577782022 0.996287857728113
-0.138027625703915 0.056130549178222 0.995543663693771
-0.141508710026524 -0.004574149087839 1.016653856632709
-0.140841698728139 0.052772623727493 1.017969536418774
-0.107833215317609 0.027402610775081 0.975324883711462
-0.115707998350012 0.026751083667551 1.014929394208062
-0.132034767406242 -0.006257876179620 0.947875939472975
-0.139078168498872 0.049376821563749 0.942760201032679
-0.130412262422920 -0.002559060311752 0.969998083838892
-0.138122198377293 0.051518166049887 0.966172774042651
-0.099644460538323 0.026345874303782 0.929887121192160
-0.104043161832855 0.028200165713294 0.966664218438568
-0.129881273785741 -0.007491608863313 0.899322043098609
-0.135042511925319 0.045015520545591 0.891650460293893
-0.128535102054606 -0.003799939545070 0.924064588993897
-0.133063632334002 0.048020406444818 0.918552931704346
-0.091397104052108 0.020284647348025 0.879215702163742
-0.096703417149085 0.025265792437039 0.918919073263495
-0.127469313287115 -0.011479383554374 0.849901032036343
-0.126055011116217 0.037442321907387 0.840152661910439
-0.126726072126057 -0.005931993516695 0.874958740770117
-0.125426114749167 0.042138557884662 0.865050526150923
-0.082979897903125 0.009124357234432 0.832992295622271
-0.088794807115121 0.017436270885598 0.871195844173940
-0.124302677148030 -0.015113165820650 0.804912311051847
-0.118093754833344 0.032933325530301 0.798803202213599
-0.123590166150362 -0.009856402134410 0.829824230173261
-0.117524889483150 0.034739020402359 0.822681730259157
-0.075389785764140 0.001252671040200 0.789450036281989
-0.081143234649356 0.008166957802928 0.827593553816803
-0.119584525085236 -0.020950943991448 0.755499875849131
-0.112947762666301 0.027310896721553 0.747752301400063
-0.117031777558986 -0.015934304372627 0.779891526157804
-0.111169701119462 0.029071568330970 0.773219507427382
-0.068063381306338 -0.005491527841440 0.737720689690667
-0.072338447292348 0.001038512769754 0.779792427336330
-0.111096329876639 -0.028038891910077 0.699984763702829
-0.104077227052736 0.022216597930134 0.702977024031051
-0.112432496438298 -0.023665441757556 0.729636036317593
-0.103026684257779 0.021723724224292 0.726122792521668
-0.059434160851797 -0.011929377962464 0.684431013097764
-0.065676433731402 -0.007633825200861 0.729570526279359
-0.097744669429529 -0.033745888222727 0.647659871309378
-0.089258618185820 0.017169466366244 0.645980432147371
-0.098112954953566 -0.030746004908238 0.675872781702837
-0.091537414643090 0.016057463244507 0.672631583229325
-0.042129029151828 -0.014894957838750 0.633373442171244
-0.052975347518538 -0.012020377361029 0.679467019727851
-0.081630867552140 -0.040288077968284 0.581971169334452
-0.078090228649318 0.016409788141047 0.584511529508017
-0.084656716663602 -0.037622653176272 0.613465775315968
-0.082556345728650 0.012028953220580 0.615209533424604
-0.023843152624911 -0.013474461991509 0.573239038565303
-0.039152491232783 -0.014450918888682 0.625412185888372
-0.063733048669892 -0.037978313129304 0.520594218966947
-0.060912543751004 0.020381363986291 0.529394003739218
-0.066080452003567 -0.037731518948901 0.557552838573844
-0.064074177305352 0.014468308826104 0.562448701503993
-0.005985830857207 -0.007632395890936 0.512973138446251
-0.020949991118164 -0.013059247458264 0.565081013949407
-0.038240829718883 -0.033912879265644 0.443962243768724
-0.042395357234541 0.029543002387936 0.453189153990282
-0.044143403272952 -0.035663069268944 0.484014604708525
-0.048143088880056 0.022346188696678 0.492531624333945
0.015435951645404 0.003438800570658 0.443414818067406
-0.002513560612469 -0.004884785778230 0.496507249890643
-0.014348246792394 -0.023574918795632 0.376870197665659
-0.022883371010199 0.041029651601096 0.382851621483931
-0.024057072677036 -0.028920776133871 0.412683940022542
-0.032735604323994 0.034239476583532 0.421754102588980
0.036647863807346 0.015105066397741 0.371431911618930
0.019701012461938 0.006368885917137 0.427889653660843
0.001091873673625 -0.012298616359784 0.306989806117023
-0.005642558256860 0.053796247852194 0.311227233608337
-0.006748367702255 -0.016411932105935 0.339565446838565
-0.009952642336034 0.050378529602931 0.349285468984287
0.052405291076740 0.026307521154125 0.292480166412251
0.043098815936016 0.018440122889668 0.354873117918190
0.013760085758211 -0.008839209904372 0.233767449745154
0.007626202214594 0.061213889926882 0.236271362515629
0.006763137238147 -0.010265899427954 0.269833465303819
0.003646765164762 0.059659038946682 0.272612520234878
0.060588328616325 0.030132592732045 0.211077154684006
0.054030654679912 0.027168918602326 0.277547450969647
0.014641493545363 -0.015749208737325 0.163407286498321
0.001708382687990 0.059799825974305 0.159603892787599
0.014220085335776 -0.014024746312677 0.189988401393945
0.004976976268399 0.061245334745235 0.189651798906581
0.049612657701392 0.019144296246107 0.127040877637063
0.060905873638021 0.026343015683932 0.188961203994431
0.001517093376346 -0.033312807315418 0.090611817357420
-0.001221702658489 0.052406243950023 0.083022896310039
0.002427325580321 -0.026523108734496 0.114147549239272
-0.000518243957013 0.053745983786494 0.111617432453503
0.028877420399476 0.004339504041800 0.046607652693005
0.044105288341616 0.013554741565636 0.100824713208984
-0.027554832282106 -0.050947633171446 0.016692910615380
-0.019878008674331 0.045131532867846 0.018096492961840
-0.020281550509854 -0.049527613760848 0.039922531954937
-0.012932515311571 0.048653352523321 0.039015158370812
-0.016929342298825 0.000558502853237 -0.020965832636501
0.016929342298825 -0.000558502853237 0.020965832636501
