ply
format ascii 1.0
element vertex 108
property double x
property double y
property double z
end_header
-0.146192547511030 -0.007053884162672 1.033190191353747
-0.148463890548310 0.064552427386764 1.034985911276383
-0.142288453158603 -0.007014802349278 1.050335868219618
-0.144282647388478 0.063365923967043 1.054199859011896
-0.125551985868274 0.032330621708108 1.016910189426399
-0.120466241393214 0.030198491666253 1.047968225550641
-0.158467046720477 -0.012136307960778 0.988701549566310
-0.160797140196193 0.073537412917164 1.000239624801794
-0.153960632655735 -0.009607740177823 1.005347847705473
-0.154734094949582 0.068652952552920 1.018183285883641
-0.141484593898783 0.034352403100378 0.966838212494014
-0.129049680448737 0.031243738597039 1.003452507474185
-0.186615403521997 0.002794477376050 0.943031513092927
-0.189159042069594 0.066012503500247 0.948346128841200
-0.175112578549575 0.003673945895771 0.965589127085524
-0.177551232618053 0.065403542434022 0.972679027821324
-0.159220584952593 0.039497408887253 0.918454927511637
-0.146155253754458 0.037177788315780 0.958733972666780
-0.204491884754677 0.003499738073973 0.894271203557802
-0.212293942978999 0.066531039978619 0.895619909274946
-0.195102542945823 0.003335236846352 0.920089722320295
-0.201657303818476 0.065168029806900 0.923428024406913
-0.172245301717201 0.041532472987344 0.867385981182660
-0.164430982531814 0.039827177652562 0.911207422338814
-0.209670863621169 0.003941132672311 0.840841766787136
-0.216086922371775 0.065466635296169 0.837435007667905
-0.205505968409423 0.005717694843283 0.867532857278751
-0.211291609411940 0.065320780946834 0.864463785462183
-0.170053910363533 0.037568606449725 0.818396034064257
-0.169963230338990 0.040261420023612 0.861304799931140
-0.207048039700027 0.001531342949673 0.785244183401487
-0.209732168426493 0.060537218074686 0.782103589312041
-0.204639527160834 0.006134822956179 0.813922060458999
-0.207778844066835 0.062000103991747 0.810447866053911
-0.159885231216989 0.030954839701946 0.763449558798494
-0.164882083724328 0.036295254555793 0.809601093430363
-0.202181715340691 0.001520870045430 0.731993807749706
-0.198152457010726 0.058566013146809 0.722969995842601
-0.200472843892266 0.006352455015082 0.759045830282670
-0.196814479634515 0.059506531035165 0.751505083791044
-0.149513224466118 0.024649129600924 0.713889987863948
-0.155511899667139 0.029695025952524 0.759481349837164
-0.188436667113518 -0.006847491318079 0.680313601424305
-0.182011923515491 0.051162436157097 0.671222865104720
-0.186109383441380 -0.000075098386523 0.707031001894871
-0.182442334336208 0.052390320320413 0.698419720240263
-0.136181728238198 0.018733982197158 0.664714082836060
-0.142580928167340 0.023918836107494 0.708220315118170
-0.177859544701499 -0.015855466150475 0.625007215863948
-0.171391887739744 0.047492321811659 0.615233697275060
-0.178722154399755 -0.008561471500282 0.653170132556733
-0.173182243491914 0.049449477721650 0.643173873175164
-0.121161795496960 0.009869818220586 0.610173241032195
-0.131824489199745 0.017292552961962 0.654895862826622
-0.163867489196205 -0.021147092596751 0.564745869413223
-0.153866121080860 0.040698983071617 0.555341201403038
-0.166401165712936 -0.013721803488487 0.596284381949198
-0.157721937899094 0.042067101977113 0.586728750855901
-0.103980102057960 0.001969161434367 0.553241256383978
-0.117772406072571 0.008603107680565 0.601830423337572
-0.146122813294974 -0.035798174759286 0.502907967718898
-0.137801196845525 0.036190270076675 0.497791826277864
-0.150962061365291 -0.026514839176306 0.538466542864040
-0.142730358630319 0.037468219831006 0.532614232885731
-0.085725829962468 -0.005663542265246 0.491888939835163
-0.101436974383741 0.000239855050833 0.539944754982431
-0.121725288832569 -0.042041558308227 0.435011363201672
-0.117067145374648 0.029328474304020 0.433407476232364
-0.131371344513720 -0.037258761746146 0.472881895817621
-0.127779393795071 0.029736917569496 0.469493272703298
-0.062676244907140 -0.007621719921992 0.431057969568296
-0.084650696939086 -0.006053849525813 0.480315358899928
-0.086767500779610 -0.038553059448564 0.357749172487655
-0.085540127489672 0.030350221059432 0.364316960631440
-0.101387164229415 -0.038366590665701 0.398518145212018
-0.099779445709775 0.027840300154763 0.401235225271345
-0.032901011834316 -0.005496486670736 0.367847095671387
-0.056866848292559 -0.006527429146946 0.423141220270679
-0.056271169934154 -0.037393121444483 0.296872479053484
-0.057580793837903 0.034068868375752 0.303351375229548
-0.070790191328552 -0.039052949048649 0.330281554461928
-0.070459911689865 0.032234577513099 0.336774755092568
-0.001195954577209 0.000383921343346 0.298281978702574
-0.023446278233116 -0.004562354699601 0.354418533501702
-0.023287141175961 -0.035086528144141 0.227686685567617
-0.028065850751020 0.039666252538585 0.232988529481447
-0.036676366095562 -0.036468951504213 0.261056423725978
-0.039216939402892 0.037570905379925 0.266211136107029
0.028392809712752 0.006285530602603 0.219478483008019
0.007902444843041 0.002076189406996 0.281650751328052
-0.004772834531216 -0.034176662658448 0.155783301149045
-0.006579793668161 0.045885114165397 0.155600919353204
-0.009638648017174 -0.033175095401455 0.189148186010318
-0.010426159328908 0.043519770426619 0.188891727574709
0.040731934404479 0.007213787529894 0.131164823950782
0.038638119865952 0.006417591370740 0.200818066577250
-0.006485282093286 -0.036535875916693 0.081745487758417
-0.005599427656344 0.048344458605672 0.079715787828793
-0.005273490441368 -0.033758512798795 0.111707445050793
-0.005090342335460 0.048821614340449 0.112052029144055
0.026583296208918 0.003231529550678 0.047434465401633
0.041931209658643 0.006833186863503 0.110840748365515
-0.030927507976239 -0.056580503764355 0.018183388414336
-0.029466154679312 0.052877182649366 0.013284368158826
-0.021978028145590 -0.048332197644607 0.041971440937137
-0.021221680109897 0.055796824002955 0.040256694444868
-0.018414941772781 -0.001859834531538 -0.027447821682341
0.018414941772781 0.001859834531538 0.027447821682341
