ply
format ascii 1.0
element vertex 108
property double x
property double y
property double z
end_header
-0.105074849486488 0.007745831538791 1.056940869707231
-0.110378131734922 0.084992728978501 1.060559011341610
-0.101967160722163 0.008751229849938 1.075050445251035
-0.103105664465248 0.081348483172033 1.076361598369916
-0.087927509909881 0.045923829361664 1.031934365131822
-0.077266410954489 0.045615748439585 1.062577303221236
-0.127267789533583 0.000926698109156 1.015835844667460
-0.126229825621613 0.090505103060797 1.018959816232197
-0.120506808962561 0.008288591552521 1.032738683780740
-0.117759409464492 0.083970014038346 1.036554028220108
-0.109411243539036 0.043377251068676 0.986298069348860
-0.091722436234447 0.041455622162925 1.020790468221361
-0.152889680581700 0.016480132445444 0.968860740850632
-0.155053742293584 0.083500138940746 0.969054325255529
-0.141438736577757 0.018790997818184 0.989212949079736
-0.143334519768569 0.083357470594280 0.992102500009971
-0.127820629376138 0.050112127467609 0.933725817504735
-0.113487888156442 0.051862657740461 0.973698024858708
-0.175401815208298 0.013881604265427 0.916811347819734
-0.175099420343506 0.076368013903192 0.910542469661159
-0.165436482899077 0.016499516731649 0.941055145347277
-0.163941049832678 0.077927802799791 0.936814897354303
-0.139349885896348 0.043964724169251 0.884102303278057
-0.129670924108657 0.047676685748861 0.925230072546975
-0.184600822069562 0.014799902517227 0.862584970219481
-0.182843313453677 0.069571366245554 0.858865513382538
-0.176850725987806 0.017573406187384 0.888539754076019
-0.175764172131749 0.071403827434764 0.884191212537449
-0.142434571974376 0.039142947590139 0.834061639212256
-0.137179104298580 0.042586372191527 0.875922909871156
-0.188293916277266 0.011918880672922 0.807645250886898
-0.186400717657949 0.065024588073398 0.806501578000826
-0.182430815843242 0.015838124886347 0.834283912360735
-0.181034113407912 0.064416696858021 0.830607359410593
-0.142083328708348 0.036145103114307 0.783703589766998
-0.140661297472378 0.038248685853232 0.826631771538599
-0.186211268567442 0.007421209359151 0.758756530335950
-0.187228297450311 0.059680211138210 0.757356726414827
-0.185586577637354 0.011317192429131 0.782589897910255
-0.185254718657531 0.059842263770880 0.780062703903471
-0.140611932156843 0.030773071264133 0.731742847538341
-0.141059838396745 0.034026271403567 0.776064888716630
-0.190302903699513 0.001242791202866 0.705115299721928
-0.184721004644031 0.056621629232270 0.701649906262840
-0.184120608685986 0.007144660209299 0.732576630302289
-0.182458987672526 0.057215046847281 0.728820214092983
-0.138232834096663 0.026468208983811 0.680618989559425
-0.140163250545493 0.030196194906684 0.725881556304363
-0.188837193205295 -0.000477241126358 0.645217079978203
-0.184699552700631 0.054661231754109 0.642949635406562
-0.185263247743461 0.003367567428041 0.672587692099127
-0.182957293056560 0.053912739849462 0.669293655730088
-0.131857213135388 0.024518666705925 0.623243053136646
-0.136885496976867 0.026079747888271 0.668389831078654
-0.183081869402568 -0.001683977556883 0.579924601069457
-0.179524723655446 0.055681103665622 0.581314325161754
-0.180595511625389 0.000273059978336 0.611991379594887
-0.179080177358486 0.055333737256835 0.612591258638633
-0.124768508898934 0.025234593009749 0.562629165546248
-0.132431763378493 0.024597496136491 0.611977422908820
-0.167699275242030 -0.004938211524914 0.513772752138974
-0.171046553783844 0.061175385747459 0.519399105824152
-0.168347485772712 -0.002638718266748 0.548853399483497
-0.172583339994146 0.056517471001064 0.552317242199688
-0.113216249692428 0.030384610168593 0.501914738124734
-0.123096291142348 0.026107144346106 0.552052323621559
-0.155284286070844 -0.001507709780995 0.445138163831401
-0.157967071281564 0.061593827872330 0.451888806116448
-0.158149542029036 -0.004225645164032 0.483460639200786
-0.160748328666202 0.056907224382351 0.489170733002369
-0.099440483629678 0.033979232202377 0.438598422580262
-0.112099197892743 0.027896701648517 0.490667975268813
-0.124530986778640 0.004589294373231 0.373100987152046
-0.144049153786646 0.069213661550791 0.377816796299905
-0.133380559573922 0.000909381480146 0.408551486677353
-0.154193596900397 0.063255965800089 0.414990946554528
-0.078806298650584 0.051088578578023 0.372226368158493
-0.092633239228914 0.042172582295346 0.422379977998580
-0.101096418585852 0.011797405812706 0.306319278148486
-0.122358137523676 0.080437938634714 0.302839411089032
-0.114390420522129 0.011343038144070 0.335112179962530
-0.133499191405494 0.077493853245957 0.337731901628797
-0.052474167355929 0.060291720753678 0.295968586229518
-0.071933147676725 0.053309500862774 0.355591032194837
-0.063954833932052 0.006947715861460 0.233545240136205
-0.087537498071444 0.079967546622816 0.223971728865467
-0.078596948359574 0.005014714841135 0.261958726854937
-0.101280698533370 0.080325768231877 0.256702742264841
-0.019265783601623 0.053251348004160 0.215425067849275
-0.042233836639753 0.052912252224154 0.278555035789034
-0.031944140608042 -0.007655371536503 0.161052920416764
-0.056320785110374 0.072610305408139 0.143268225509750
-0.046700493095596 0.001636421441394 0.187770928235466
-0.068414512044862 0.075349434277427 0.174626314531538
0.006597764881179 0.040407061507829 0.139945758854277
-0.012810557838335 0.050290204443542 0.199396589272399
-0.020110680022995 -0.022638390944077 0.092728480688466
-0.036266319517373 0.061203816033893 0.072220681255427
-0.028553441265129 -0.014908971434272 0.121643374277025
-0.044363006636468 0.067261276244262 0.100153437676284
0.012880082811522 0.019032913710018 0.055682783637092
0.010913482361776 0.034335644611393 0.116763186382149
-0.026882515794291 -0.050255054271225 0.020967853158963
-0.040872801291039 0.054250801800870 0.001029434826040
-0.028577477780023 -0.038808504038822 0.049864137832764
-0.041332338102663 0.060710938249997 0.024134987067648
-0.009901622621895 -0.010177396400299 -0.027154541944029
0.009901622621895 0.010177396400299 0.027154541944029
