ply
format ascii 1.0
element vertex 108
property double x
property double y
property double z
end_header
-0.170886862778943 0.000086392529708 1.049506848805460
-0.171031920072509 0.078745186212799 1.051716340961975
-0.166950290243985 0.002389851003826 1.064510137515946
-0.167724870517771 0.072714910617606 1.070621799238680
-0.147798106198932 0.042901657341865 1.030705626389266
-0.144966023003659 0.039905261460075 1.064740688754215
-0.174140253971990 0.002832468303132 1.006775280767997
-0.178703782101441 0.082445559260888 1.011977831204859
-0.172666574564786 0.007070708660993 1.024290499673620
-0.176255523072330 0.074376522660014 1.029099213139984
-0.154827094841864 0.052460547880022 0.983276512687411
-0.149162158235600 0.046154021580622 1.017488724667512
-0.192317088179418 0.015027550505604 0.953030654916698
-0.203322443836074 0.085955432288046 0.956480451117848
-0.182546645057370 0.015082749298731 0.975770503776432
-0.193397957570416 0.082859421840054 0.982196156773558
-0.167488157553757 0.061632276650572 0.929867700889181
-0.157911808792658 0.055950138559938 0.971455755323911
-0.207758116156329 0.019115855537018 0.899138147647533
-0.214829980140900 0.083944912525360 0.899787696236423
-0.200886764997025 0.020852435242650 0.919667477396461
-0.205748366609362 0.084863779876995 0.925911359484127
-0.171945139175545 0.057000199322214 0.873481235124968
-0.168052212197943 0.059457187462796 0.921113685776388
-0.209701883890117 0.017793395149125 0.852672317070388
-0.214426643843214 0.074959832697152 0.842286985066762
-0.204956584851205 0.023606983388973 0.879233719584517
-0.209686479575756 0.079297430882641 0.869204227242632
-0.169461193484831 0.045637977049527 0.825305782392322
-0.169168511511972 0.054527293390125 0.868031702181185
-0.213336531863599 0.008818841602396 0.800041679885962
-0.212642054024490 0.063931884046099 0.787395251272712
-0.209414336688711 0.016251680020160 0.825666756825515
-0.209781216109076 0.069297976953760 0.814687845241845
-0.166371088024011 0.031428524005780 0.775663325455362
-0.169163120001945 0.043682142602824 0.819840074918460
-0.212064648974524 -0.002298965549096 0.751692928616755
-0.205418971020609 0.050871079376538 0.737819803103223
-0.209700343458681 0.006764419543782 0.776724682714835
-0.204370964166914 0.056281844795845 0.763326010083623
-0.160432724837839 0.013422420949186 0.727921247433406
-0.165176996922459 0.026057809803811 0.770112124036796
-0.200395110630335 -0.018603918823087 0.697774747490321
-0.200646971170138 0.040940944862281 0.687132676914013
-0.198860070704260 -0.009395476436644 0.725629342195059
-0.200296523018425 0.049078787400633 0.714849146266646
-0.151852265000179 0.009568004757487 0.673818984750358
-0.157765981283374 0.019161555002956 0.720647330192133
-0.194321446216359 -0.027202607099407 0.641163378736437
-0.189887827804685 0.033981018895400 0.635627581632232
-0.194355078969380 -0.021489917118624 0.669890627849726
-0.191561249821437 0.034688076924571 0.662964848113012
-0.139165785169590 -0.000799869023196 0.623299508849110
-0.148948808481700 0.004446070232449 0.669711681064565
-0.177760011108256 -0.028160755452662 0.579094774881589
-0.173685056482622 0.032531986391174 0.581984367517143
-0.181543053976750 -0.026431364427065 0.610388896244569
-0.177633182253351 0.029682188234386 0.610385558643124
-0.122636699121646 0.000335428945211 0.571431385225555
-0.135845641947646 -0.002039402852112 0.616405564695410
-0.153772669523853 -0.023561540661608 0.517766348331788
-0.154611947917955 0.039622078814405 0.525300341747190
-0.162107430547454 -0.024259869579307 0.551726443033515
-0.159132857444341 0.032248290268358 0.559262747096070
-0.101704546552177 0.008666338890222 0.513196144999447
-0.117800514628005 0.001265336055471 0.562699449630013
-0.132956562789237 -0.014055024792279 0.451184537107735
-0.135595578577852 0.051261322007017 0.458251009582279
-0.140347809558226 -0.017647824378413 0.483966971976562
-0.144638424584915 0.043963528078485 0.496185674127721
-0.079687673513121 0.019507638598934 0.450765796495688
-0.098760782077787 0.010749002191832 0.501304014312742
-0.106403119170860 -0.007230913530348 0.382964990528533
-0.108730197593665 0.060170407217711 0.392551352093967
-0.117784596836498 -0.012408303587086 0.418211858956550
-0.120543252799984 0.055234351419296 0.426802074859971
-0.051922680570250 0.029538671372255 0.385303365448536
-0.075437623180916 0.020424452041987 0.439639773709871
-0.071552911837640 -0.010805998154967 0.315468676508581
-0.079583180914038 0.064429956877105 0.312678955177800
-0.087521794319989 -0.010500735992047 0.349312211898309
-0.092325373014899 0.064781175244537 0.349948153342847
-0.021910198162107 0.031249063743474 0.309268183239699
-0.046388423897482 0.029336874854126 0.372477476572980
-0.045682392822602 -0.012412668142822 0.247909975015466
-0.053328580994265 0.059696724551110 0.239676112250930
-0.057357322676817 -0.008366468237328 0.278799219649324
-0.063101078024895 0.061886191098956 0.273651097789872
0.001620918978638 0.026838808541914 0.231193469809463
-0.016326390944811 0.031143287451528 0.294377346024049
-0.028903500143436 -0.021230097683068 0.170279162577401
-0.032369984351810 0.054864391136059 0.163219878782892
-0.038426447281417 -0.015115868574607 0.203220261884146
-0.040122719031138 0.058768871349431 0.196241337262887
0.017666823032792 0.016705850555237 0.146759855411000
0.006355691736069 0.024957941758434 0.213513681478750
-0.023385674739320 -0.035496289951379 0.091588533311297
-0.020572846936998 0.044312692537335 0.086169808996236
-0.025770776079551 -0.028203887532873 0.125149399532501
-0.026453187205744 0.051435647497869 0.117416176984697
0.013063243686002 0.006439645249337 0.053057465061512
0.018284792777241 0.014182880601475 0.127951701053342
-0.028290921909013 -0.052014592979271 0.021223165741606
-0.028172308688433 0.046745547252085 0.015849370676765
-0.028909148392035 -0.048422563608854 0.042958910043574
-0.028858314154644 0.049582508480239 0.038895251915138
-0.009697657736692 -0.004503836411302 -0.033995652994043
0.009697657736692 0.004503836411302 0.033995652994043
