ply
format ascii 1.0
element vertex 108
property double x
property double y
property double z
end_header
-0.117056186969001 -0.034052663472538 1.026961669249288
-0.112411284015151 0.048133455018928 1.038658812518346
-0.111992776863985 -0.026286592091944 1.046456732556356
-0.106832767938543 0.041206240424979 1.052695384441217
-0.095277759173654 0.014685784431267 1.008245976806749
-0.087178198132352 0.006172454055605 1.038658812518346
-0.133223723606234 -0.026510322329989 0.979392935672388
-0.127231701407312 0.063017569725920 0.996549096749735
-0.125143113832155 -0.022127315360674 0.996549096749735
-0.121255471931074 0.056013497214902 1.011365302749179
-0.107563970998882 0.027555010935635 0.959897609153276
-0.097167621655019 0.017246574414720 0.994209404883878
-0.156306893507448 -0.004143089190518 0.934943791249965
-0.150583084382134 0.070497529613862 0.956778546422890
-0.147637741601288 0.000516290425793 0.952876954283438
-0.138381626835318 0.069321234985837 0.970815118345760
-0.124967024974211 0.040618224716989 0.916228362019471
-0.111363700077013 0.029302475700785 0.951319791826647
-0.175063383816924 0.008076266775341 0.891274280904115
-0.167087269224613 0.092747896605460 0.905310852826986
-0.166154708950035 0.013291813442227 0.911549504711847
-0.156522727384150 0.088043507729495 0.927145607999911
-0.141710469565376 0.053836996816796 0.873338748962240
-0.127758651920918 0.043240343106871 0.905310852826986
-0.188014206055167 0.029223512087357 0.845265341904454
-0.184949891430091 0.109169169653841 0.855402953808320
-0.183066346037800 0.033564668341556 0.860861708404562
-0.177021155005836 0.100093091926485 0.872558851673621
-0.153019111856372 0.068822974585109 0.821871055366336
-0.143823009436606 0.061668607996534 0.861641342481137
-0.198784579714632 0.042582576207020 0.802375728847223
-0.191573885748478 0.106787890284912 0.800036300193412
-0.195675782253991 0.044300561223158 0.817971832135287
-0.189673494785323 0.107595161626186 0.817971832135287
-0.153458149547029 0.069702629238692 0.772742790424245
-0.153361813938647 0.072306059573396 0.813292974827663
-0.201361162420771 0.039084488132182 0.739990789270880
-0.192831776110378 0.091852449229192 0.738430994693642
-0.200213031481535 0.042603896382646 0.769623727693859
-0.192364574730932 0.100649522189104 0.766504401751428
-0.154317536873165 0.059296541049172 0.722054994116960
-0.156855690620769 0.067179215365594 0.764944607174190
-0.186679720988242 0.027147032266259 0.685317699393910
-0.186798429620428 0.081755635192264 0.685317699393910
-0.195045389406795 0.032154904629831 0.714369728834107
-0.189908543141292 0.085127381485617 0.714369728834107
-0.142280060430233 0.050902972153875 0.665949767504460
-0.152447941719246 0.058638510937276 0.712433014608775
-0.175714833627701 0.015079549650225 0.630673036417773
-0.169224287816006 0.075813360069800 0.627767701867731
-0.184679835872169 0.018943502467277 0.657788351632639
-0.176589487252433 0.079279336275178 0.653914659969931
-0.125544248988366 0.036716369365492 0.611789151478634
-0.139157049519176 0.044407162101285 0.658756708745305
-0.148573723632449 0.008610324014156 0.567671654232606
-0.149652893015958 0.063427127667564 0.573053024487689
-0.160529077917416 0.012300030457578 0.605978745590594
-0.161541391441556 0.068028600634029 0.605494435428239
-0.097577706020752 0.022086517493736 0.560463592386900
-0.120367131280015 0.033451750374355 0.606462792540905
-0.121109126034189 -0.006816533929128 0.516111046784902
-0.116766127295677 0.051185398677900 0.514291198707443
-0.138570876295499 -0.000660793838366 0.555137496661215
-0.132006367899227 0.059275747297636 0.552232162111173
-0.069756982525934 0.011418270107637 0.508653986344855
-0.091826786054828 0.020987870418915 0.553200782435884
-0.093797981058023 -0.019610481788695 0.465076073790581
-0.084440266442776 0.039328222485628 0.462170739240539
-0.109852336516011 -0.016752788618754 0.488814115259153
-0.097261851567042 0.043543300170388 0.491847107650903
-0.037810673441575 -0.001607304351317 0.452486641689792
-0.063971844994191 0.009310468053213 0.499454198956463
-0.069414543655704 -0.026207102054427 0.401645392760413
-0.057712399357794 0.031140748621377 0.401645392760413
-0.080157280050469 -0.023173320026543 0.434087066913008
-0.066319170009346 0.034892309895317 0.433602756750652
-0.003137487573519 -0.013277336779765 0.384698485258650
-0.028538239528829 -0.006739412800014 0.443286854301400
-0.043913244699296 -0.035094456745691 0.324509523771725
-0.035672075577913 0.032871104603618 0.323902820008557
-0.049808141653703 -0.033258552733502 0.360972551544137
-0.037461917482270 0.031942755721755 0.360488241381781
0.014920964393259 -0.014688416551715 0.310615612777113
0.000282689736070 -0.013765858334837 0.371140959257239
-0.030513909136785 -0.047926570351748 0.248153288859610
-0.022783634594278 0.032283088895628 0.247669241909300
-0.034968509782274 -0.046465480291295 0.285437011787579
-0.028520077897741 0.031837470903852 0.284952701625223
0.032838071492001 -0.011560141399762 0.232174738470513
0.019213952843266 -0.011631998287981 0.297057823563658
-0.012162502164192 -0.053194496215540 0.167291653377368
-0.017108782909289 0.036311812452698 0.168744320652389
-0.014833314782354 -0.041484718768333 0.200701684642629
-0.018451953973691 0.030694340993467 0.205059423255647
0.037180017382334 -0.010535193697473 0.145986744050542
0.034261785442098 -0.010549143935846 0.215227567756705
-0.018061347299270 -0.055370470189557 0.090303709557834
-0.020094660345028 0.044042350207250 0.098535139833560
-0.015179438621211 -0.050189141088490 0.120808406273053
-0.017202223185179 0.041946129482795 0.124197787773405
0.024922232457940 -0.007572742133719 0.055441011017553
0.035739194649327 -0.011043456155902 0.121292453223363
-0.045760203617365 -0.057541179922679 0.015252216751587
-0.044936349917271 0.056877885569888 0.025904671415000
-0.028065773908488 -0.046336506389363 0.038494103515789
-0.028613518173630 0.039554321632076 0.050114915291868
-0.017074038919381 0.005075386253052 -0.029294316127397
0.017074038919381 -0.005075386253052 0.029294316127397
