ply
format ascii 1.0
element vertex 108
property double x
property double y
property double z
end_header
-0.063494523482966 -0.032201448231950 1.030523829145704
-0.065052820228502 0.038313257261453 1.034019268973811
-0.063590890221124 -0.032280895619134 1.045452581696724
-0.064904224189510 0.033072426995151 1.050329768521069
-0.039473458843121 0.002952794557002 1.014675791858411
-0.041872328561702 0.000921001192169 1.048038545107963
-0.067635350727949 -0.031438115774223 0.985676024288375
-0.065836995364965 0.041610569037570 0.991836139290950
-0.067227569848669 -0.030529374981311 1.002301861304518
-0.064507477669560 0.037355965287483 1.009607342805660
-0.041446892707492 0.007468790019242 0.971496136923959
-0.039771141337076 0.004023372620103 1.004471216349011
-0.079919289951297 -0.017327377061615 0.936732510455328
-0.081646534998592 0.040922025015309 0.939694132499795
-0.074967805107456 -0.016223695920520 0.958912798750760
-0.073605184334058 0.039991951127690 0.962078924254830
-0.047622455813129 0.019185317964987 0.921716954277570
-0.045183617192972 0.016439233739455 0.963444977940020
-0.084965670285386 -0.018790778316904 0.898454808351720
-0.090206745759672 0.045593482340126 0.892161545413218
-0.079547799853817 -0.018270692180432 0.921290047175450
-0.083027055954905 0.046138089275112 0.914555164655718
-0.050733409520544 0.014741904066347 0.876053097245711
-0.048245774511344 0.015077103382027 0.917617321974090
-0.093504057535789 -0.020316952816387 0.852323584900193
-0.096009347519919 0.030392058509635 0.846176220712845
-0.087842450366996 -0.016716318762658 0.877273497387730
-0.089572392702127 0.033086649058289 0.870353237631236
-0.053939258718205 0.003682043104795 0.827022779785926
-0.051604633491730 0.009861284330210 0.867150085721411
-0.099552112489157 -0.026131814975891 0.805941023263901
-0.098204694610837 0.024487695435557 0.795521400351538
-0.093744361361222 -0.019895195081954 0.832213097207289
-0.092700265760515 0.027772011188462 0.821547775893821
-0.054338702525991 -0.006360204718445 0.779340370620431
-0.053325257923426 0.002450608603444 0.822408210713661
-0.103735605923553 -0.036061757541938 0.749747935350322
-0.096581417749240 0.014867450554736 0.739066185101850
-0.100153607676694 -0.030083341656350 0.774850121996630
-0.094838234182912 0.017787387241730 0.763062974151166
-0.050833699586464 -0.020297090969591 0.727229260035404
-0.054003503210311 -0.011376424470362 0.771954706108149
-0.103674303927270 -0.051994636792088 0.694462607397716
-0.098142166574627 0.009678359173298 0.685151814994136
-0.099895403668346 -0.041763333612309 0.723225994470081
-0.095980167769688 0.011802350740542 0.709664521644177
-0.048387995142722 -0.029667959329530 0.674669418837578
-0.053243848872361 -0.020539846874876 0.721929825060655
-0.091625764369651 -0.057459341948818 0.635182105743297
-0.084754791418169 -0.005550037535557 0.629619807808483
-0.092332944198782 -0.051907833165350 0.664096786142490
-0.086839794915777 -0.005292569151165 0.657635800942155
-0.034515108175696 -0.037731623920711 0.620901928312960
-0.045588210368445 -0.031511432961779 0.668584582686440
-0.074123308806649 -0.068254623494409 0.578746016716449
-0.073061558231012 -0.012298651702456 0.574247921437124
-0.078245990660732 -0.060998919214249 0.608755550769273
-0.077147458887325 -0.013552400130454 0.603904110783367
-0.017687710195772 -0.038470680787910 0.565198275537712
-0.032450211732870 -0.034753327733255 0.615722890458913
-0.056238819202806 -0.072891261285336 0.515098606054752
-0.056315814510139 -0.014289985749742 0.512834845935981
-0.059191123343837 -0.068497624607678 0.551154478605047
-0.060298482604709 -0.014996675162902 0.546536231413005
0.001483630914062 -0.041023541121155 0.502933347496209
-0.015405559478116 -0.038831381734044 0.557693685152641
-0.036930652037266 -0.072784595811802 0.445182943669035
-0.036351470776376 -0.010107473147286 0.446687049449856
-0.041295108964693 -0.071103940281683 0.487886404696354
-0.040688709617453 -0.011918088909526 0.487344740257189
0.020844272588421 -0.041520087291055 0.438962507502118
0.004488409563913 -0.041379828323557 0.494584751226300
-0.010452848594349 -0.070872218735730 0.375259434627794
-0.007150877866514 -0.001832194064932 0.378915485686165
-0.023281394752683 -0.071478863290955 0.413673717579122
-0.021021067545704 -0.003761490491979 0.414839926756427
0.046763737449185 -0.039105769469410 0.368255804156354
0.029373587143375 -0.041371246044077 0.426880619658521
0.004203232677200 -0.062553537840008 0.297744776782729
0.015532086798446 0.005738847684111 0.307297344259653
-0.005168861722664 -0.064659874432322 0.338565776108162
0.008247447976040 0.003869627213423 0.341681388767293
0.067470325753953 -0.033411304430609 0.289331690812729
0.053355173297612 -0.038763949538132 0.356960788737057
0.030056981797947 -0.057488521699049 0.228796950314342
0.041314725603504 0.013054873128614 0.231653132925200
0.018940232583844 -0.056275723004569 0.264281488259271
0.037281054248025 0.014260560791526 0.265921194055872
0.084132943967866 -0.031275788088063 0.207469495391211
0.079142961470358 -0.032819862770462 0.270366814826379
0.035276478969542 -0.053909711155996 0.151371057759895
0.047142828994204 0.025231656462458 0.158747404368741
0.035599417885965 -0.054611496409454 0.185128350657530
0.050911185309767 0.020885344925932 0.189877784121620
0.078514493404456 -0.016774923471105 0.119019051825072
0.091876612138445 -0.022952203032639 0.180498823898171
0.023840714166777 -0.042440352859268 0.069906099274296
0.027309671532489 0.043971921934425 0.077566151521944
0.033251551428293 -0.042936899029168 0.097420642078366
0.035686957136659 0.042046303627155 0.105602742126368
0.044055415253363 -0.002055088123421 0.037076673392414
0.076311299658013 -0.008235064972791 0.093266818810171
-0.016201995013836 -0.050065095157057 0.021502043008547
-0.020707691740701 0.048276548113478 0.024729715716886
-0.006577581597267 -0.053408751242365 0.041210634813814
-0.008167264964901 0.056787472069547 0.043973638390321
-0.023852238942079 -0.000217744690800 -0.017262151737569
0.023852238942079 0.000217744690800 0.017262151737569
