ply
format ascii 1.0
element vertex 108
property double x
property double y
property double z
end_header
-0.104408085140075 0.002800267924115 1.057903715447106
-0.108611002538216 0.087068661136371 1.058715471159567
-0.105971727380130 0.007281652497247 1.069880319483670
-0.109215731615612 0.076576963815226 1.072103528962050
-0.085018518881472 0.041203834504319 1.035497295683840
-0.085660980638406 0.041713477229279 1.067188721676625
-0.116182442014315 -0.002396528253058 1.017485223779572
-0.117044004863766 0.075500576243605 1.014560941115375
-0.114829096574885 0.001280395592323 1.032019851937616
-0.114762938610095 0.075678422939828 1.033497715219522
-0.096254053091909 0.035582168355548 0.994226800112337
-0.089478018500472 0.037573699181565 1.028469709895483
-0.133000148835606 -0.005474760249770 0.975971981303041
-0.134983126920928 0.063453789423101 0.966607736446492
-0.126180092784708 0.001756833559290 0.996777277697910
-0.128288091814899 0.067007956284385 0.989102953782271
-0.105170285266743 0.025993539831347 0.945482215377944
-0.098306459307580 0.033920924251088 0.982557843189607
-0.148558590365116 -0.011745428486594 0.928476851363750
-0.147779787859451 0.052354344410197 0.916669541282713
-0.139216230462700 -0.007207696445352 0.949568664571911
-0.138882673575583 0.058966116070046 0.940696705407736
-0.114827587267703 0.014541923142755 0.896206857618049
-0.106660977659691 0.023525571038364 0.932776112870312
-0.156146380669014 -0.018312675584588 0.874988262606640
-0.154316848813814 0.038544938352873 0.866921015721412
-0.150991090439333 -0.011956983043204 0.901136757975290
-0.148571419476159 0.043621744609115 0.891456564815409
-0.118138755672763 0.005100452068752 0.846394941155124
-0.114083498827213 0.012531525976970 0.886050226491202
-0.160253960163523 -0.026399291911979 0.819357463856558
-0.160706249215585 0.029335900584825 0.811440141484694
-0.155171871332146 -0.020484820169993 0.844453469017294
-0.156506853534201 0.031250959846977 0.835507050698830
-0.118787003107226 -0.003175833861117 0.795875662726459
-0.117798910005723 0.003890742362764 0.839310504796262
-0.157683861584590 -0.035544184124813 0.760588312373701
-0.158379903746468 0.019867513532751 0.756443503302048
-0.156944552616842 -0.031151345572997 0.786099377009355
-0.159199457546034 0.020870448154872 0.780855792309555
-0.111827587693234 -0.007661494804596 0.741502368409781
-0.118703488109848 -0.003700821209089 0.784534477013315
-0.149944134357752 -0.037697713921646 0.701408377786273
-0.145858691368572 0.019144303841606 0.701835511718644
-0.149004590637255 -0.033460585560724 0.729868880205816
-0.148544251946891 0.018202496160337 0.728478556740438
-0.100737953177010 -0.009662333024899 0.686797529615562
-0.109603623561263 -0.008425707340839 0.730083956479183
-0.137269978852129 -0.038361305979122 0.642452072212908
-0.138241218023437 0.021128036580518 0.643841137922301
-0.139425017956143 -0.036525988446392 0.670612222503328
-0.139890890772839 0.018044773559868 0.670747053944877
-0.086277281070860 -0.008487085832888 0.633077765308483
-0.097869514878530 -0.009756413172547 0.676856729415673
-0.122629699191378 -0.036360216207622 0.586809450556571
-0.124886616530145 0.021297330536045 0.591053622351007
-0.125267968144676 -0.035529845706589 0.618530811141789
-0.128043835602689 0.017238803524936 0.621128328801186
-0.072037219364409 -0.004644641299933 0.577483693033151
-0.084979025343555 -0.008163590993649 0.625041207669278
-0.105800672566224 -0.036855772065555 0.521824468997818
-0.107984640057885 0.028622752941556 0.526663810924167
-0.111590374914538 -0.035004858358616 0.556743548398284
-0.110847795781230 0.023279050865382 0.561494847405711
-0.054275692452273 0.001135502102897 0.519952676541535
-0.069929723436612 -0.003875900842145 0.568272391304330
-0.079390312401581 -0.029176668677174 0.457891474544584
-0.080975336493375 0.036883191146019 0.461128938448946
-0.089322308309578 -0.028427297661549 0.493145368588151
-0.090507617549466 0.033049550904956 0.495613840483529
-0.028322903914827 0.009373049148441 0.457853741865046
-0.049167190745219 0.003366006565988 0.507290092390970
-0.051348642724910 -0.030853005853450 0.391918651435526
-0.053139435695785 0.044855854781205 0.397307129624751
-0.063825078989755 -0.033900297052940 0.424863305491366
-0.064870777315352 0.040667527352485 0.433518175972600
0.000908602923275 0.015262114219538 0.390261432150216
-0.020497146178642 0.010044690844217 0.444306200603716
-0.029304205134013 -0.024603216365969 0.322078480225017
-0.033235447239480 0.045302358155738 0.325881682771252
-0.038388473508389 -0.026169625669191 0.354295396668168
-0.041447839165331 0.043959074764185 0.358042251746293
0.022063555481864 0.016390824440118 0.313216583108718
0.004967129934385 0.011852086194088 0.373286505830849
-0.010247944211329 -0.024278212219549 0.248454727461633
-0.015549385686420 0.052349313386259 0.249845805580601
-0.017117304296823 -0.025891913147791 0.284022305847759
-0.016874305840599 0.050729323678093 0.285930573227596
0.036685723456437 0.019261275148174 0.227203933897018
0.027760183887317 0.017210126688487 0.297729833670331
-0.008030771961675 -0.028475092388964 0.171160339632790
-0.010036138103522 0.054351157811349 0.167230103732110
-0.012369023903759 -0.029617637925375 0.202529025439926
-0.012173065521359 0.054759928506344 0.203350340097871
0.037925870857253 0.015143633605788 0.138940907677670
0.038067242629922 0.017934091033223 0.207493891413539
-0.007708283327223 -0.037207189087652 0.091241769717677
-0.012404492622525 0.048451024487588 0.087899408964199
-0.005078064012226 -0.031364409436788 0.124822093648135
-0.011434008104807 0.049323152487310 0.118776312181357
0.019157887606240 0.005965285083764 0.050914842685822
0.035887551508609 0.013269074086339 0.116285452229454
-0.029160820951768 -0.058363399402225 0.021079361423914
-0.034564643764006 0.047552483612189 0.012343743008469
-0.023958993750657 -0.046695951786676 0.045889604424948
-0.028982471153152 0.050169622264946 0.039309276664715
-0.015810495828823 -0.003280227607838 -0.027653148853027
0.015810495828823 0.003280227607838 0.027653148853027
