ply
format ascii 1.0
element vertex 108
property double x
property double y
property double z
end_header
-0.064068757440355 -0.029738016408925 1.057015982937143
-0.063445324281805 0.036614771316051 1.071188434275845
-0.060460626455879 -0.029214628987557 1.070981626768198
-0.059691293263939 0.032048100270937 1.085473900243585
-0.044237005917595 0.008554026322727 1.047586209033043
-0.040416740916317 0.002326410770510 1.074081655096708
-0.076302127859094 -0.020399487922532 1.017352943066332
-0.075250952856620 0.045988964255050 1.029058062729257
-0.070596973378826 -0.020114172301680 1.034698372750239
-0.068455253523600 0.041233781103302 1.046553792606291
-0.057309185734650 0.017822383840680 1.000280323286129
-0.046355567037363 0.011898610897682 1.034703930846750
-0.097492833978574 -0.008987326263161 0.974253841615504
-0.099271888036517 0.048378250992331 0.985243819527462
-0.085277295786139 -0.011236734238271 0.995605037771714
-0.086633702921958 0.043859286942262 1.007478984616133
-0.073167824602104 0.027477260653440 0.952816958138097
-0.060363822941661 0.020140341672748 0.988766031603385
-0.112919099255013 -0.002941275196941 0.931993086388283
-0.117817171804542 0.057308722559941 0.936015758737471
-0.103915909258063 -0.003639742658377 0.951299829378193
-0.104134990895503 0.053871271455796 0.960741414237378
-0.088042911974624 0.027008296260400 0.906663219480257
-0.075774571865343 0.025310760951272 0.944951556814236
-0.132648257579691 -0.000689551348285 0.885620266093004
-0.133928935650561 0.050560267047256 0.886047081587509
-0.122147855335331 0.000339622855503 0.910561297832677
-0.121861381777707 0.049677456051568 0.911064768741551
-0.098276757173853 0.025013402787982 0.856405984486479
-0.088425262697049 0.026919366716238 0.898483785703576
-0.146574068385756 -0.003794906185951 0.831151151881340
-0.146103251293880 0.045214304553955 0.827512451366058
-0.138774206283244 -0.000328506662483 0.857247804520405
-0.138600052592594 0.046912303037791 0.854248979865850
-0.103490483287685 0.019154242716914 0.804829627920969
-0.100311715258615 0.024611598727772 0.849088518843573
-0.150123376182167 -0.008021838581885 0.778289485497868
-0.149421434910412 0.039865099837689 0.772295773173785
-0.144327439458901 -0.003296993373587 0.802976234322205
-0.143530778959120 0.041791906627858 0.798643698092578
-0.104383484126975 0.011215196614294 0.752843130150485
-0.103506925989861 0.016870328225970 0.795676600905601
-0.153046008597063 -0.017144990828511 0.721323396429040
-0.152009423597929 0.033477225836097 0.716207863353553
-0.148074986030839 -0.010250635282437 0.749220872337380
-0.145906402042480 0.035529321385098 0.742936749470643
-0.100835102679983 0.002967444568009 0.698015750301274
-0.103180387819893 0.009560041791056 0.743188948099789
-0.144388578520512 -0.027482123987886 0.661151443610655
-0.146233634974512 0.025484914641922 0.654727905156457
-0.142790162599148 -0.021707724888597 0.688532942892973
-0.143276032869073 0.026300333717425 0.682453543247692
-0.095360840792240 -0.003949143364106 0.641385694483952
-0.100731351545128 0.001398671828032 0.686619336582015
-0.137704967467112 -0.031852408956310 0.601334514206852
-0.134578306592824 0.030901279691019 0.601470687571350
-0.136814745676077 -0.026221825604220 0.628290819106147
-0.136378435100034 0.028296616713971 0.630538374382421
-0.083305792636534 -0.006013513042901 0.584788987245691
-0.093523195133587 -0.003561234545172 0.633082593059921
-0.124937325021340 -0.031214848969130 0.536448832373189
-0.123164755409326 0.033941790069400 0.540018288269449
-0.127398635425898 -0.028664840607766 0.572607029219671
-0.124776603397256 0.029722500056167 0.572350893605497
-0.069635654269933 0.000194649171531 0.524461870899732
-0.081927616289383 -0.001927154171201 0.577505796531264
-0.110753062727555 -0.028881606371660 0.465132432877336
-0.109794059492207 0.046215919862546 0.473004318647126
-0.113274122669596 -0.034127754715134 0.507286657921447
-0.111571029263958 0.037272016228371 0.511450135382224
-0.055017165686296 0.010274951954668 0.461610452388767
-0.069181511467587 0.000234250609165 0.514975358093757
-0.083563549362190 -0.022348063924032 0.392693761061152
-0.087609612034191 0.044742097937950 0.399441984986482
-0.097123220560652 -0.025572917836666 0.432276671707275
-0.097128778657162 0.038933655497537 0.438055470966301
-0.034235211247663 0.015276312464343 0.390549956919734
-0.049936370713997 0.008957914669128 0.446801830587014
-0.065458513155235 -0.019217002890007 0.320653882669567
-0.068807961064637 0.048222624290048 0.325716150653498
-0.076090457017000 -0.020938160109303 0.354341042442598
-0.076880169896144 0.046749265540162 0.359840778939346
-0.014739492976409 0.017569953624180 0.314264619143848
-0.029303326944364 0.013025514965106 0.372031074110131
-0.042531365051057 -0.014084563937635 0.245593873586804
-0.043243727753768 0.054357141725721 0.248076721615339
-0.054057699276239 -0.014740882500537 0.278718739262896
-0.051728856838506 0.052809211847657 0.282127241947717
0.007595486262089 0.020912453912943 0.231861206634464
-0.008858563694010 0.018944887748367 0.295710766643702
-0.026148180825461 -0.015437265675782 0.169247628336662
-0.026481898203422 0.057301311764594 0.165100825165415
-0.033699549696501 -0.014344404949483 0.201876665486581
-0.033481857583189 0.055755002998012 0.201223357559290
0.019133631442356 0.017679726030254 0.141857791909578
0.012921300655541 0.020352475689550 0.212660993827665
-0.017495382496002 -0.028887627642879 0.095980800140471
-0.018578053378700 0.051664938728639 0.088631838617341
-0.020351549340132 -0.024804974168853 0.123760861260035
-0.023226011585274 0.053720044913250 0.118037411378755
0.017167454801906 0.008541752192934 0.055294375749737
0.022864272137408 0.016225589030798 0.120561481956406
-0.033825301630042 -0.051890736399362 0.020857799297261
-0.038368582352343 0.049521366174576 0.010286068147688
-0.027398520952880 -0.040915348490744 0.044035756506458
-0.032936932537844 0.050994030162399 0.036242378849874
-0.012626953127861 -0.004520932542583 -0.028238256700615
0.012626953127861 0.004520932542583 0.028238256700615
