ply
format ascii 1.0
element vertex 108
property double x
property double y
property double z
end_header
-0.163018689217763 -0.014141748936545 1.035404693468505
-0.166713175969921 0.056906580252082 1.021791144844052
-0.165502130665930 -0.010018313334826 1.051702975140741
-0.168995325818472 0.058754203901964 1.038768088496356
-0.138608153268280 0.020902510118632 1.018967992132048
-0.145815609410726 0.026110233090075 1.048113443958156
-0.161173347210698 -0.022708557166074 0.995367946414271
-0.156109367736714 0.047012869966641 0.978454888760837
-0.160821974216909 -0.018174172341460 1.012243230203292
-0.154331460950680 0.048823987331454 0.998257773799699
-0.132923566948123 0.007277553280095 0.968184960926491
-0.131449372172593 0.018229945832538 1.005718492294811
-0.166701260724100 -0.029350926437556 0.946634337489949
-0.164371956924002 0.029528387545530 0.928187001800143
-0.162871142982276 -0.023069310246999 0.963878486867690
-0.162158256359956 0.035794539268106 0.947006752300827
-0.130661191337318 0.000585241382513 0.917445787966190
-0.129915094136220 0.009629927024230 0.958235730665841
-0.167189278771030 -0.048647793802822 0.899983614941510
-0.166179778582524 0.016043878498162 0.882875096553436
-0.163468679884412 -0.039881215068888 0.925364863151613
-0.163031365011190 0.024393423628357 0.907815734184026
-0.125446623437425 -0.018933705883590 0.874543804565776
-0.126607726115315 -0.006805760248752 0.914010140915806
-0.165562467442642 -0.056377239118581 0.848814732584043
-0.166355718595287 0.004011508345761 0.837461024411710
-0.162219607200141 -0.049631688888606 0.875640007181320
-0.162844777331948 0.007746050605148 0.860787526507338
-0.120903619073281 -0.030322906277518 0.825473019536303
-0.123143178255918 -0.021254136628290 0.866145584388822
-0.164228213426543 -0.063952546786271 0.795484880963185
-0.159735658720237 -0.009756684958498 0.787849743550521
-0.162154453621928 -0.057600960215999 0.822399646662055
-0.158160564629030 -0.007130514076345 0.813969483485666
-0.114679043953145 -0.044142563303090 0.775330369414664
-0.119093008740205 -0.035593247668489 0.817780587537350
-0.160378574962841 -0.071926127883429 0.742629611048224
-0.155489014406410 -0.017471679869750 0.738449387891953
-0.158149409930814 -0.067453347414869 0.769487335676674
-0.154559371716492 -0.016633049376637 0.764168319238944
-0.108231628384567 -0.050203113656284 0.723539612631682
-0.113337691492727 -0.045452479795809 0.766753674066263
-0.148987346441965 -0.082246505375614 0.681965038318916
-0.144993203933199 -0.019131955292785 0.682395508263688
-0.147893171953369 -0.076340346186357 0.711889544409032
-0.146640043015201 -0.019088097047528 0.709176671099840
-0.095597158044396 -0.054810511051036 0.669468227095359
-0.104934908030139 -0.051073940664701 0.714735260033335
-0.137272378156970 -0.078343628579520 0.624340374369209
-0.133565976158991 -0.020895158158445 0.628804535298239
-0.140384538959104 -0.076455188874804 0.651380376907135
-0.137663553142119 -0.024115063204706 0.653867114061593
-0.080337530885546 -0.051371568294361 0.619694949594176
-0.094569658229224 -0.053685407626478 0.660674775679360
-0.113983649925754 -0.074444808037322 0.571852955979492
-0.112831927335000 -0.015224768726926 0.581695963091225
-0.118155507058363 -0.075066935978707 0.602044921310912
-0.117436029023461 -0.020742288089718 0.609140576955334
-0.059744183368592 -0.043675840589117 0.571420711423640
-0.074040703742878 -0.050485023302094 0.613422459974887
-0.088129594620833 -0.063999954253687 0.508360413736678
-0.093147941238480 -0.002238671877097 0.524904859317261
-0.094936749206862 -0.066267400181863 0.538824655110904
-0.097985531041862 -0.011887485833533 0.553051205105474
-0.038574594282459 -0.028963554190435 0.517300904356427
-0.053974669232477 -0.040745704180591 0.556895266220067
-0.064554139942304 -0.051621788456605 0.446740339698862
-0.067860240383867 0.017351006316327 0.466416466803456
-0.070737645491737 -0.058628713547039 0.484271589424365
-0.074376105236949 0.005776739338369 0.501004904327007
-0.011285385645763 -0.008445500886435 0.453368005049968
-0.027120747342055 -0.023624509999091 0.500077036248170
-0.039841666593396 -0.036977951342426 0.384265410152346
-0.045355636734029 0.040288615069623 0.406625256241250
-0.048188423049037 -0.046458937793893 0.422609685268241
-0.053209051309501 0.027877238693763 0.441798808389380
0.012888619998377 0.012285759263001 0.390558688072855
-0.000183418730885 -0.003519434044935 0.440188729108315
-0.012208690438967 -0.019641775704408 0.318358636293474
-0.018229945832538 0.052207156597052 0.326891726912488
-0.024218244163199 -0.025245490462502 0.350803090116826
-0.026600025748084 0.046603441838957 0.364808827789902
0.039547588185896 0.029269040812019 0.311334472123979
0.023245250259763 0.017453933758953 0.372170675096285
-0.000377104854446 -0.017461032203272 0.251105693172682
-0.002606776918210 0.070410863537196 0.252973091060310
-0.008453866910097 -0.019358598479255 0.286487635364748
-0.007152569956908 0.068158375045264 0.290387469970419
0.050785186090440 0.033772243184803 0.227824316901654
0.042156266473119 0.030374116482962 0.296661480684920
0.006021128635637 -0.020517165998459 0.172388508960877
-0.004587496399072 0.068003476849589 0.169300432166253
0.002089604546398 -0.017374836807970 0.209763592911363
-0.006707903123498 0.067537007651485 0.207992024022041
0.046364122859061 0.028789895820488 0.140305822281924
0.048838691251829 0.033491094086598 0.213851536291487
-0.012009426966298 -0.031077115986409 0.093479666752458
-0.011197669155250 0.064437522642778 0.087467537930155
-0.011237724662478 -0.031631555190895 0.124169030217944
-0.009880654218211 0.060769401540947 0.119505098784509
0.025009720704765 0.014612781420283 0.050461826600124
0.041930130318386 0.023622228356274 0.119950779681393
-0.025559089591880 -0.066018701114830 0.019709591199241
-0.034034632108737 0.046145845696252 0.004600805982170
-0.024542997990792 -0.057117505454703 0.044300376931253
-0.032469171620534 0.047955948997591 0.027866717785218
-0.010888633311506 -0.008663524533375 -0.027812465389352
0.010888633311506 0.008663524533375 0.027812465389352
