ply
format ascii 1.0
element vertex 108
property double x
property double y
property double z
end_header
-0.136177542857989 -0.011461357937890 1.063820917005708
-0.138839497270489 0.063726578573034 1.062382806922040
-0.131301260986087 -0.010165099719692 1.081536280659233
-0.133653472426609 0.062891338917612 1.081748562471894
-0.114649786323583 0.027016456556267 1.043139063815911
-0.108198502357980 0.026424249817209 1.072891500627061
-0.139489734318148 -0.011446726364354 1.018591499299298
-0.148783511434121 0.064046489248656 1.021979080562085
-0.137931347740158 -0.008281842610644 1.037464989197130
-0.145520174550006 0.061409582106108 1.041448497090551
-0.120263846691589 0.028281715677990 0.995593641613663
-0.114638874641624 0.028111096650992 1.031998236535572
-0.156723248016067 -0.006734367714612 0.973772509630218
-0.163444348117388 0.056948440134199 0.974286102660615
-0.149329839510396 -0.004284199129229 0.996672410170992
-0.156295708477484 0.057882628905569 0.998517724385955
-0.126842846934669 0.031147272156138 0.949630165302726
-0.121626318979858 0.030927798553095 0.989012657428409
-0.171976539431163 -0.004305278514832 0.921493401399853
-0.168493232958462 0.053734205818901 0.921813808061019
-0.165861781656893 -0.001459313465657 0.946503720428645
-0.161591594119271 0.056246868582777 0.947820066061358
-0.128946073632304 0.024023679786186 0.899536865363005
-0.127287249981734 0.027642142319518 0.942607010005353
-0.171867422611571 -0.005481260238707 0.870354563934224
-0.170019876461662 0.050568578086875 0.866173901787221
-0.166700245218348 -0.004880869738180 0.896200866596753
-0.165674299121412 0.049570655173152 0.894098383877434
-0.124633231337932 0.017636377955708 0.845643572180995
-0.126420763237065 0.019235435348273 0.892132793168148
-0.160910853960680 -0.010309183520108 0.804373607069143
-0.161396919793408 0.040519166995228 0.805475934939793
-0.160443139593065 -0.007771969471823 0.832128958088987
-0.158726781619438 0.039257131779538 0.830498405614404
-0.116555114789322 0.013483986984690 0.793588153430793
-0.122247540873217 0.017236117622022 0.840920797834837
-0.153155871993725 -0.014018163415147 0.755982777507829
-0.151928803758859 0.036430262173791 0.754527803915678
-0.151707346213642 -0.011664960003538 0.784113837576950
-0.152544321818467 0.036607577005628 0.779855057706830
-0.102515747992186 0.010707211918847 0.740687823307070
-0.110162109125092 0.012534918647012 0.785052986203756
-0.149063495273483 -0.015743697121331 0.699055788748390
-0.145196543982807 0.034641986296342 0.700900854970581
-0.148327452726781 -0.012639571596711 0.728280496941149
-0.145396426156878 0.032610925495301 0.728536673474419
-0.093665133959419 0.008217364489976 0.687239181164897
-0.103002061817685 0.008041289621998 0.735803605666471
-0.131609763994206 -0.021128860160965 0.642322978329271
-0.131526190430110 0.037674937895455 0.641621158785077
-0.133216509162698 -0.017315723301770 0.669990291915126
-0.133961975434728 0.036320649368655 0.668341139982657
-0.076974972424514 0.005099599362907 0.635595182423112
-0.089552173839118 0.007381380856238 0.682314788695266
-0.115758562006300 -0.020140360972571 0.587621476703965
-0.111534749117005 0.033355895781788 0.588613199798392
-0.121636734676273 -0.016713844844612 0.618038534143538
-0.117351171586799 0.031086513927047 0.620046779609573
-0.057933343427403 0.002284881402978 0.580869625498940
-0.075628371673641 0.002459468314325 0.628638241195809
-0.092868829169170 -0.024187355015574 0.526772482258511
-0.088899208870969 0.033012673785617 0.531819631150182
-0.100669441806136 -0.021274431918012 0.565988819227088
-0.093860304270826 0.029281374541115 0.565129524272801
-0.033489439889402 0.004562943004732 0.520680787812018
-0.052943976851560 0.002380110627350 0.573788935878510
-0.066055354696621 -0.023183232282556 0.458007310544432
-0.072866228181333 0.038584327389645 0.467023831741533
-0.072384378225726 -0.025440462491479 0.498711108158265
-0.078938083206082 0.032700946871464 0.504671862421247
-0.013707552468468 0.015375923840751 0.457699799507400
-0.031957092552450 0.007181250689396 0.510523747857409
-0.040286177786122 -0.018732258014291 0.391863670421050
-0.052036075314001 0.045752062472977 0.400285008965831
-0.043284906382726 -0.022988061971149 0.427996465265067
-0.063370832941887 0.039219188885453 0.438863260532567
0.011387580088280 0.029650635778325 0.386981932708169
-0.006301248338664 0.020166400213610 0.448618304204088
-0.012011529902128 -0.003700176151640 0.317433599820746
-0.037646046737540 0.057459305244107 0.323840741072969
-0.017818280653823 -0.008544962941523 0.348974560502117
-0.040675774430619 0.052935669093705 0.360312046050493
0.025539783596584 0.048048971525388 0.304948651717252
0.018689479261156 0.037433640928493 0.366776721625773
-0.003372701696479 0.000921417143623 0.239722584849530
-0.017938061162602 0.072943477929749 0.245006318845499
-0.012720789229476 0.000850243218116 0.270051604855114
-0.022675219089524 0.070978383206007 0.276315406285236
0.039000335264339 0.051537981831841 0.226606495141805
0.027530917561366 0.048358218511823 0.287023734171556
0.006451531958374 0.008315321634837 0.168147903023731
-0.010917633785719 0.073344482241750 0.166681521764078
0.001645432040892 0.008260515232269 0.198682261044365
-0.013915122418464 0.073737054799509 0.199958679840819
0.042957803916722 0.051756463463797 0.140194157786446
0.042199442020558 0.054601188549113 0.207939583222883
0.013428808592965 -0.021655100822725 0.096534286332759
-0.023701165186460 0.063831727508277 0.087250676920429
0.017519697356576 -0.013141012981291 0.126449158409437
-0.023849216871224 0.070524804426385 0.117476779925716
0.026469260505290 0.021852255076306 0.062972432553991
0.040282705887317 0.039140079191249 0.121827317121402
-0.016049596205346 -0.052622206230150 0.026520223019895
-0.030553205471291 0.044400749859440 0.005387518970967
-0.007528068580758 -0.046074701069089 0.052249969079678
-0.026266898403502 0.046772800721706 0.029834646415001
-0.017208218435195 -0.010230817804219 -0.022392135340514
0.017208218435195 0.010230817804219 0.022392135340514
