ply
format ascii 1.0
element vertex 108
property double x
property double y
property double z
end_header
-0.176993128575191 -0.043975308916271 1.041013538214232
-0.177791958231828 0.030505197645492 1.058263085615909
-0.172457554092790 -0.044767358189151 1.057436883298922
-0.173006765177061 0.022644723869198 1.072802990768257
-0.155661790152146 -0.003442425945671 1.029460015418604
-0.148770660127697 -0.009568879357590 1.059505653720605
-0.181946826722573 -0.032123700360684 1.001464815389612
-0.183035203878141 0.036118602019841 1.013926407357953
-0.179682178547926 -0.037759706014221 1.017331164504977
-0.178978776514527 0.030468533348142 1.032384872070868
-0.163639037204245 0.009059848325209 0.987453780170265
-0.154106822144005 0.001042923471868 1.021413960027644
-0.205175668096121 -0.014594901598373 0.952674429504980
-0.205511422654726 0.045375834849959 0.971724294356650
-0.195489010961429 -0.020199014335722 0.973734803703093
-0.195680368458554 0.035822274137153 0.995058357241085
-0.177480060579033 0.023701710359228 0.941950875906204
-0.165949390187917 0.012140904929194 0.980977760306904
-0.218846679626349 0.002376147818641 0.909459528070727
-0.225748608039743 0.057019511637016 0.918308431123514
-0.211656710465968 0.000547955457649 0.933160736179307
-0.215046148968209 0.052448779609211 0.944018892951914
-0.187163704209833 0.035489281957115 0.891690151247725
-0.180565637438856 0.033286661737573 0.931061830718706
-0.224328243205434 0.009553309587482 0.858830653686807
-0.234962145063431 0.060883074751558 0.857694813844943
-0.219949622050728 0.010676844288455 0.879141921042496
-0.228811332495054 0.059211333467612 0.881126564480535
-0.188021297192359 0.046890873931534 0.837013387761217
-0.187233768175316 0.045167149705456 0.883437670840179
-0.221049802096539 0.010801402449313 0.803108455475187
-0.228966276820155 0.062498563962858 0.800795340112948
-0.221848882878500 0.012023127152092 0.829418353452721
-0.230743992990960 0.061585472283659 0.825561068471287
-0.182319245578527 0.041881928212805 0.785614312007631
-0.186746333920826 0.043231977956307 0.829241812349730
-0.218575715401416 0.007697744566140 0.752189782467011
-0.217980548382796 0.058205576543742 0.748670763297425
-0.217528773924359 0.011820971266021 0.779345219411503
-0.219079472801986 0.058724903714419 0.773551004803649
-0.169212763777353 0.032209836346923 0.737327432398246
-0.178087281613219 0.035775062576182 0.777980604399191
-0.207446845529199 0.001431665473903 0.699662651756615
-0.203429342590854 0.052798848311302 0.693756686379442
-0.208566613350307 0.008036512628637 0.728562907454428
-0.207283614068397 0.055720691459673 0.721087659925629
-0.154308978030076 0.023473186314104 0.684834454731956
-0.167156298496561 0.031030551823953 0.729473990131033
-0.192760534312777 -0.003881644137893 0.641452052706386
-0.191766329153826 0.046377322643316 0.633804533205109
-0.196192664120151 0.000299090261256 0.671682268121757
-0.194086978275794 0.046359743870614 0.666033706202004
-0.137043107482320 0.019333385342818 0.629452531334780
-0.151151328202176 0.022555825504391 0.675360249621632
-0.169431996185477 -0.016003965793088 0.583392631101394
-0.164864026536240 0.039978398254519 0.578737520964621
-0.176667419029559 -0.007427784842504 0.613650972553087
-0.170940254883296 0.042379909730916 0.606374365155819
-0.113905173476173 0.006010433512087 0.578869864010533
-0.130049016074903 0.013699137566551 0.622072711429219
-0.151781652766199 -0.026392769334557 0.527761089131852
-0.144436237030069 0.032174678801519 0.521941510866243
-0.156605519120911 -0.018736209321604 0.558461411154335
-0.150398203354564 0.034208040552474 0.553254327554723
-0.095739269766082 -0.003035854045609 0.521768987768440
-0.112366277488788 0.003232987425194 0.566647594476262
-0.126239947155736 -0.032401193844049 0.465037014627762
-0.119822690618264 0.026403065472853 0.461051906856253
-0.136415796422188 -0.027942212585562 0.500225950696999
-0.128821264364341 0.028491925920482 0.497222491818226
-0.071564690421174 -0.011432480389310 0.462194024831224
-0.091371195874997 -0.006396664260879 0.510658701170223
-0.098364031655792 -0.038295356330979 0.401842331265911
-0.093194867980151 0.030259345952990 0.400314233667471
-0.111833389550598 -0.037875977039377 0.436832376078293
-0.106596170912068 0.027518815288772 0.435029798500381
-0.042146614304630 -0.012912613050806 0.399895858877167
-0.064959592141117 -0.012036436794281 0.452281857155300
-0.076331300201943 -0.039657711215372 0.327485629489034
-0.066743084194381 0.026360374167720 0.330183468848119
-0.089500563334196 -0.038326746996518 0.364848808616166
-0.077209736586387 0.031740985366432 0.367385927767692
-0.015805074536233 -0.014685557840449 0.321084947222966
-0.036469424097905 -0.013296332546355 0.385020450291539
-0.053170513791284 -0.038363913544516 0.255477702870449
-0.040770698652723 0.028315887068139 0.258751623723506
-0.064096223276132 -0.037447557236101 0.291162862580527
-0.047832091647056 0.027954266601129 0.294462147091340
0.003688528763497 -0.013677038538012 0.237729671700013
-0.009935773456410 -0.013567045645963 0.305079976928581
-0.041671485191031 -0.041437687514096 0.172396907326969
-0.031219649193160 0.032846941294703 0.176085687215789
-0.047811499370463 -0.040173773756833 0.207782223399818
-0.036948571216693 0.030421321787172 0.210933595094611
0.010492267175085 -0.008462421178670 0.148183905807441
0.005071727049808 -0.010045012972485 0.219327710185069
-0.032289443074730 -0.044517488491460 0.087569284027573
-0.022702733819114 0.039015332635782 0.095712776044367
-0.035927746773364 -0.042018540389230 0.120052093602023
-0.029712897247287 0.037321492323296 0.128292519994002
0.011328263379720 -0.005291461708581 0.056993520165949
0.013982658057700 -0.007358976503643 0.128872870618487
-0.039480918987056 -0.048623387543964 -0.000850435910783
-0.034382321527547 0.056726197258219 0.013021978129543
-0.039451788449436 -0.045179203721023 0.032327237436039
-0.033252508693467 0.050598739345003 0.042201736313316
-0.010442544360871 0.003556185717584 -0.033030639469437
0.010442544360871 -0.003556185717584 0.033030639469437
