ply
format ascii 1.0
element vertex 108
property double x
property double y
property double z
end_header
-0.103225679097294 0.006551320818707 1.050756768345638
-0.103582109091279 0.079261205868254 1.050438388113069
-0.096864492477951 0.009656043820977 1.068526236142242
-0.096969931575850 0.075416575457248 1.067157820023855
-0.081734211144850 0.041543119179988 1.029340253838875
-0.072562155704773 0.041753080514066 1.059788314726993
-0.120659804719492 0.000733374768975 1.007857266857349
-0.118754107632679 0.075384485297018 1.007703004872814
-0.114033186631959 0.005278716750150 1.026362286969514
-0.110594038317004 0.072933026270862 1.026947015531994
-0.100319915088451 0.037245788294307 0.982713709455281
-0.084843518455725 0.038147521796775 1.018422493682277
-0.148282785430202 0.005611995985683 0.964228401870114
-0.143389952856820 0.071252877167382 0.957412910268084
-0.137817725748279 0.010210515946669 0.984503881965264
-0.132899679477574 0.068948345231994 0.980836893512675
-0.116183456582811 0.035598646212777 0.936309962469856
-0.104835229848268 0.037736309314968 0.976320891106568
-0.160972380862367 0.007350824239299 0.911699560158468
-0.165774673340814 0.069633011722048 0.904323636829561
-0.151372609429508 0.011367824653827 0.936116733862184
-0.154528447472717 0.069931450212189 0.929509599086220
-0.126063100055964 0.030549717931419 0.887995246442723
-0.118717203948414 0.035073055231293 0.929388802554496
-0.170849273750357 0.000192197138236 0.866407966440449
-0.175128725832482 0.052869112017801 0.854446817645509
-0.163645720424972 0.004721952470156 0.888821338853220
-0.167292767135132 0.056062999822425 0.881162563683427
-0.129549925180403 0.023249664909912 0.836486871826397
-0.126918302826098 0.030290704495275 0.881324160561729
-0.178821844844116 -0.004247476529610 0.810933018804243
-0.177126796737672 0.044587558524112 0.802722980524781
-0.173232197362878 0.000703576763047 0.837605672341280
-0.171410393123525 0.047506387812477 0.827982062503678
-0.129526315991091 0.014566067551625 0.786757438163974
-0.129648487815396 0.021835176490052 0.829638602417846
-0.180165047265179 -0.015965427753091 0.758443602146594
-0.172961723155224 0.034618750248606 0.748985715065038
-0.175952526088677 -0.010803496264636 0.784761200982227
-0.170082318920856 0.037652187252079 0.776347390185303
-0.125646615619262 -0.003336803625363 0.734657000091401
-0.129051152404254 0.005284676351336 0.781630576636342
-0.176019915425160 -0.028505574724756 0.696752790473800
-0.170744063867888 0.021671745888308 0.697615098922271
-0.171113559141396 -0.022585627808578 0.727401644078787
-0.168021901418648 0.020604748060655 0.722107455287098
-0.120312314127285 -0.008978941440120 0.682843310522028
-0.124959886190336 -0.005569361915663 0.730265690879331
-0.173443533989537 -0.028899137618436 0.643902130298132
-0.153191663083699 0.025278679898181 0.645985469343361
-0.170235664043670 -0.028829914558511 0.672989339177059
-0.153233609507429 0.027600402990835 0.671728654310874
-0.108975777379682 -0.018189046641613 0.625066581535596
-0.116915341451490 -0.017742534983553 0.674237875625444
-0.149441010999082 -0.026208836113996 0.577502775257850
-0.149298668216918 0.028299051622132 0.580236398478601
-0.150591443243334 -0.026354387912183 0.607935937143004
-0.150260456162102 0.023420201189993 0.610183852867128
-0.092593521366744 -0.004596571629828 0.566111226806995
-0.101831132419862 -0.007871372481318 0.618253152872437
-0.135046281981543 -0.030837841727200 0.517297279572853
-0.133845422342643 0.036479979541956 0.532167172177229
-0.136149266631740 -0.032228033311457 0.549419759178696
-0.137299698875992 0.028944293058189 0.563185750271154
-0.077252591053275 0.002744969384547 0.508409222050814
-0.090051522245653 -0.003904341030577 0.557308208209566
-0.118730040012506 -0.017308400958724 0.443207517633409
-0.114557402320862 0.047021367962141 0.459509089814911
-0.121573457424331 -0.022564769204428 0.481873639341046
-0.118610160342504 0.037986841780194 0.494901785963640
-0.057399325780582 0.014723996983044 0.443525439435118
-0.072393223932704 0.005358712935295 0.492762059922577
-0.092249698221420 0.001546631115380 0.375074835509836
-0.095910727072824 0.063188619901537 0.393921615828452
-0.101741509186648 -0.007236216524191 0.413468649286378
-0.105842402448635 0.052075338982964 0.431626408021766
-0.035289893028277 0.036286980149715 0.376946379497546
-0.052255960741974 0.020798893530047 0.431148035418906
-0.066767589628923 0.015317664947302 0.305823123655951
-0.076567924563221 0.079918137291252 0.318567043145078
-0.079756998843810 0.008673168056213 0.339075864548187
-0.085698721225859 0.073215419680888 0.355225466899457
-0.012749535267167 0.053471260952977 0.304376774291291
-0.029890265138688 0.040631987844881 0.362646087237257
-0.037487152142324 0.020347797563383 0.239904433372832
-0.053800414310767 0.089263479596572 0.237378250116426
-0.050724572452704 0.020077552571159 0.273633713144486
-0.063562699483649 0.085785364658480 0.275885296315494
0.006854572832882 0.054979727699226 0.225109264998706
-0.008896423885243 0.054080286351060 0.295081400949759
-0.018889070565491 0.008599131472253 0.175183393712589
-0.035190184316133 0.082941947246656 0.157476960159295
-0.030009227946970 0.016431422722720 0.207725337555726
-0.044913273650448 0.087901023079370 0.195190920969817
0.021842969814679 0.045573872520329 0.144528809721846
0.015866865118099 0.060807530012457 0.209059371359581
-0.014721704828741 -0.013641870936996 0.107080280379514
-0.023694572059961 0.064483457866825 0.081669457785814
-0.016750032170719 -0.003370956724466 0.135905037590846
-0.026051594328868 0.072194723370138 0.112241065790818
0.018929870912069 0.018680942954855 0.059426850868554
0.030036733798596 0.037838310181414 0.120645707970533
-0.027141055268683 -0.048128249274652 0.028254469220954
-0.031660266690813 0.050569852037308 0.005149095424363
-0.024378092472864 -0.039942507830793 0.051216583373662
-0.031537865651078 0.053080677859890 0.031608807826730
-0.015124436339630 -0.008120529653963 -0.025927244957976
0.015124436339630 0.008120529653963 0.025927244957976
