ply
format ascii 1.0
element vertex 108
property double x
property double y
property double z
end_header
-0.120568040023996 -0.032933404554344 1.049809580910416
-0.121455711579799 0.037215579020011 1.061550081855138
-0.117066272554720 -0.035159717428801 1.063495366679637
-0.118003882005166 0.032654924356155 1.078095321663043
-0.097351759933199 0.005948851699388 1.036806874200067
-0.092735307315634 -0.000087009137861 1.066557629719016
-0.129656482063908 -0.023570304093894 1.004267240136393
-0.130905948570699 0.050125034355669 1.017104081696677
-0.128167007920617 -0.022719831173896 1.020026722459196
-0.128438863704211 0.046545812192660 1.034578777829373
-0.107759989188685 0.016670976292633 0.990026277467030
-0.101484885070466 0.011695021790671 1.024113476694294
-0.147020346644717 -0.013002834102938 0.954467439058847
-0.146597148466133 0.047977959671182 0.962758913065880
-0.139420869177742 -0.014639319293214 0.976352466601116
-0.139380358334639 0.045409470304348 0.986633558053403
-0.114948243380382 0.022443134471944 0.934004112802852
-0.108348797732158 0.016749195341896 0.971729389568956
-0.155969166407769 -0.011778336543469 0.909454796667290
-0.160578739825562 0.046957545038291 0.907649134119650
-0.151235257823722 -0.010295741599950 0.931639961147773
-0.153786931368890 0.046435999781480 0.934117746991684
-0.120293381603458 0.018920219832997 0.884434127954737
-0.117718267822028 0.020864740301967 0.924528906864632
-0.163989294201561 -0.013146278157449 0.859030771906703
-0.165239525063882 0.040428165313674 0.853637224500045
-0.158187326156570 -0.009190483503201 0.886312149492574
-0.159671959381503 0.043149525786560 0.880648784583736
-0.121202709899285 0.011813496897860 0.832923699200480
-0.120129045164453 0.017384374787538 0.876525341283185
-0.165362586304253 -0.020532500431482 0.805549325025094
-0.166480328874663 0.030814611024477 0.797206129627181
-0.161561191467117 -0.014024522661712 0.832144056559620
-0.162769637560451 0.033983629052915 0.823206192559168
-0.119030921052653 0.002115608715158 0.781415563512814
-0.121063342407601 0.010252173334726 0.824353744995258
-0.163693743396529 -0.030518550649091 0.753701560696818
-0.163635397591053 0.020056561721310 0.744862043774593
-0.161497495172929 -0.023708652444870 0.778699298743464
-0.161484755914091 0.023298193525123 0.771251163671479
-0.112705624254613 -0.009639414984638 0.730634839504774
-0.117473419267169 -0.001495206809768 0.773509069907854
-0.155486858068178 -0.042045032045341 0.693755704310664
-0.151886998305853 0.010350010842598 0.684966634853435
-0.154188982377805 -0.035943181847313 0.719284669450837
-0.152254398530729 0.013421700933518 0.707603788237476
-0.101653807642652 -0.019722793139765 0.676345723612862
-0.109411251919213 -0.010965062259277 0.715689141036516
-0.147761007153535 -0.046955506756877 0.638099156375126
-0.143070157264358 0.007756297743265 0.635536272282179
-0.147711833614422 -0.042521225540690 0.664748157152299
-0.144753013356803 0.007347367534579 0.660415790006812
-0.090276375574802 -0.022638045132159 0.623894627986038
-0.100434915357072 -0.020101403912419 0.666657772052053
-0.131567625674723 -0.047430426326343 0.581776599987558
-0.122343892705956 0.009398897777784 0.583340726187637
-0.133157485177654 -0.043996941284436 0.611119189653351
-0.126012799251181 0.008556068413089 0.609832779295932
-0.072594284308230 -0.023896174334959 0.574305789034843
-0.084998500638390 -0.023400107595824 0.616510953563772
-0.107850183141255 -0.042335487146838 0.528081388342655
-0.104695942653068 0.018214464893395 0.536475285990742
-0.114275610513758 -0.041960952937013 0.559751185812899
-0.110856648226926 0.014735628090026 0.564575543134694
-0.051516416205911 -0.016220261314959 0.525946798131828
-0.068527148531742 -0.022420458591213 0.566417385177432
-0.079717058709502 -0.038603903448131 0.467237159423274
-0.081134683432949 0.026986973314135 0.476874153948733
-0.088179748355312 -0.043592087638577 0.502483121634406
-0.088763206410074 0.020757220957378 0.511553728711945
-0.026368354904982 -0.004017070489257 0.469707046926705
-0.042748493918352 -0.013963374219292 0.513585895281717
-0.055628139388330 -0.029343226628735 0.402204516983271
-0.059117167598769 0.038961876621468 0.414966451701590
-0.065808081125447 -0.035637694420387 0.436183942080770
-0.067888911663979 0.030573329462093 0.448035274577378
-0.001748718060636 0.010523774333143 0.401806032966831
-0.018742634564801 -0.000047517435464 0.453191107414126
-0.027623171900484 -0.014760342252171 0.328866387351514
-0.037544506683198 0.050060573705951 0.339361753137449
-0.039468899123204 -0.020369947488715 0.362137764442819
-0.046369755635525 0.044540143281271 0.374683386546076
0.021981973302023 0.025353800331156 0.325215315768661
0.005044109536743 0.013845153897279 0.384268150110300
-0.016762444171087 -0.010461606750016 0.257962220513266
-0.019433611964152 0.064648299000873 0.264058975007759
-0.024281409522208 -0.013018375998720 0.294499179214999
-0.023478071859910 0.060939900753251 0.300867789493086
0.034570399314974 0.032652886074740 0.237966934626965
0.025575973005284 0.027120480746753 0.307170919980748
-0.008648045861897 -0.012064205511784 0.182369242067256
-0.015925474865457 0.064513772427548 0.178488099469797
-0.010950539504202 -0.008519379347637 0.217587432694122
-0.016276823624198 0.064118091048053 0.215224809750103
0.031945857209254 0.026519952085149 0.149132770545166
0.036302428946533 0.032257969050775 0.220664728058930
-0.013131755402374 -0.030019681273011 0.099362779333300
-0.017790502359280 0.057544888273034 0.085631896587794
-0.013466033554272 -0.021950889510460 0.131351567844837
-0.019097805101193 0.061717759897874 0.118307331150678
0.019413229150012 0.010788750916965 0.056558105283474
0.032187903127169 0.023054618896148 0.121520936585047
-0.033859803457014 -0.048786138251839 0.018787221970733
-0.028492244138384 0.049510492509344 0.004437720816074
-0.029685912691466 -0.042143124338390 0.046548360044428
-0.025594062752833 0.048284211453638 0.036387017625214
-0.015295645908527 -0.005241058478372 -0.028431095695964
0.015295645908527 0.005241058478372 0.028431095695964
