ply
format ascii 1.0
element vertex 108
property double x
property double y
property double z
end_header
-0.095680860312912 -0.021987556454717 1.042908138051597
-0.094580595558841 0.047959960306709 1.038658855894402
-0.088502472734190 -0.020159420633356 1.058960537964571
-0.089237862159824 0.047508858806001 1.055839714405242
-0.076643907085616 0.012262324986578 1.017311182219466
-0.067092772602906 0.013638889409834 1.044089225157880
-0.122929975391389 -0.024041243026433 1.005527330256947
-0.117054143395962 0.048142045547880 0.996332378000838
-0.115316932720837 -0.016440182739494 1.021937557037410
-0.108463714140542 0.046620752726481 1.015740315222728
-0.101217661336713 0.006454158216257 0.973731487969246
-0.086196451260516 0.013119417837924 1.010985893364219
-0.148722173591795 -0.029946913506542 0.959154095984110
-0.145558589369378 0.035082657102369 0.946539230475755
-0.135035472121861 -0.022590199865820 0.981547291366418
-0.131498319469170 0.041021690297634 0.971106171214602
-0.117654672268780 -0.002166109523845 0.926184215051076
-0.103659718106695 0.007245465432083 0.966845846468588
-0.167258451143045 -0.037169706389240 0.904556012630386
-0.166459860517572 0.014208874951875 0.893102733486356
-0.155840884201153 -0.030660217754537 0.931689767898005
-0.155070252470776 0.020906322545207 0.919199425199741
-0.129696497902017 -0.016783677736388 0.872927688764564
-0.121435701670292 -0.007267550609722 0.913926471564115
-0.181682891525597 -0.045374584830773 0.853610441740212
-0.176972405073667 0.003748254058101 0.847011437651462
-0.171995486797881 -0.041954201681130 0.880274769508655
-0.167503972532754 0.007092748778198 0.872697439040243
-0.137803167787666 -0.026491992898251 0.823925143609212
-0.131647981789978 -0.021901095333748 0.864807626803112
-0.184450352242704 -0.054874735445955 0.800832975849504
-0.184682246607912 -0.006966816275916 0.791982458385082
-0.177258807536877 -0.048680547964351 0.826051664277395
-0.176822977701557 -0.004197006071826 0.815947460558921
-0.139796472543922 -0.035706445896317 0.772682832513103
-0.135485398879078 -0.027923300368207 0.812362848269176
-0.193148857899335 -0.063507220518368 0.758533752004941
-0.193021515704864 -0.013010871539316 0.749681589899631
-0.187896344800460 -0.056583987225984 0.781976698171190
-0.187747857223144 -0.009925290284730 0.773816225033632
-0.143005166916410 -0.044238842823260 0.723738084737529
-0.141767222225142 -0.035163714403277 0.766846706847686
-0.193086126596893 -0.072900704424528 0.698460894083764
-0.191018578051979 -0.019447291128852 0.692045619877074
-0.184651468328436 -0.064744695312239 0.725034531654669
-0.183923127363751 -0.017406761684241 0.717341371478002
-0.144861026684168 -0.048259284948325 0.669680618338560
-0.141536032706029 -0.042110442565490 0.716681165635820
-0.195958139484737 -0.079210486665689 0.644832209059167
-0.195542750186168 -0.020664090437274 0.643018640057100
-0.188397960271300 -0.074850543671601 0.672092131777765
-0.191321191975371 -0.020158010941167 0.668483319772096
-0.142946429741838 -0.054398259485832 0.617602829671347
-0.143074946679800 -0.050578933446500 0.662840321936671
-0.196995672936367 -0.077638444925459 0.589009573089978
-0.198871033446083 -0.025687058657924 0.586436414946353
-0.190715729179888 -0.076614538498330 0.620077074412994
-0.195523014495512 -0.024162711503446 0.618978454299809
-0.143556826459984 -0.049376466008674 0.559957931598254
-0.146746489987911 -0.049189916742235 0.608808229997117
-0.199476731190264 -0.079636918553077 0.521663643264669
-0.202190153706765 -0.014479535852300 0.521324612293043
-0.199401547606812 -0.075243377895135 0.560114172482614
-0.198655820438453 -0.017811343342689 0.561456434395920
-0.143284520918671 -0.041546565689605 0.499153678379314
-0.147218032025370 -0.041747916724035 0.552662539567785
-0.196186274670772 -0.076818239019744 0.441861673251046
-0.200251591997210 -0.015000182167701 0.447702732839127
-0.191792029166735 -0.075823231282504 0.492300224850320
-0.197477552716551 -0.016753369354309 0.489544276619429
-0.140022963089069 -0.035957606054785 0.429835119283198
-0.151087872034834 -0.038996902415808 0.488460458274237
-0.175121949125969 -0.074217826827118 0.362462405306285
-0.180501569470616 0.002202996469476 0.377139415539494
-0.188259105590613 -0.079558210739152 0.404500836095751
-0.191042072921807 -0.003054920449460 0.413665245021082
-0.123204395470986 -0.041147387851217 0.355555853371479
-0.138010627488252 -0.046374291541979 0.418003337786229
-0.156380091463719 -0.051441665066605 0.280701902943752
-0.163930167883130 0.013178859858590 0.296181967827702
-0.166838597819208 -0.059920023792942 0.317749318535535
-0.172620920232718 0.005545846548685 0.330667737762075
-0.100747294042745 -0.012897861215440 0.278609449836820
-0.114124803025736 -0.027276486601827 0.339442601745649
-0.096446088223229 -0.034819984457685 0.209262226999513
-0.129791417176124 0.028190671986856 0.216761554500094
-0.112269178206675 -0.040532997005200 0.238089962381771
-0.141200760913575 0.020113605637191 0.249994812923907
-0.062885311314006 0.012132163407727 0.211250127935709
-0.085160562449774 0.000174449408477 0.268057903796809
-0.057538113889722 -0.012946495595986 0.140144549040432
-0.095316219933173 0.054969419771364 0.144484756343864
-0.073239735396155 -0.018475073415346 0.167736689218406
-0.102749526849536 0.045051765319329 0.182538692159102
-0.026961420397425 0.031688353258235 0.131313767266666
-0.047165598757805 0.030496458511832 0.203040080622813
-0.039966770642332 -0.034787561537322 0.078981764107907
-0.058402960048111 0.051894881105598 0.072514331290197
-0.050895879240487 -0.021224443082685 0.107977722758138
-0.076445845332961 0.067067868040888 0.103220951412646
-0.002193363572846 0.012135217740805 0.058274560584498
-0.020004354492488 0.028651171435496 0.120459842251962
-0.025446941088276 -0.051686011712822 0.011843528931883
-0.032329058358460 0.055183692984201 -0.002758062769176
-0.032638720742801 -0.050865100961012 0.037009588851358
-0.039264978880552 0.049525188534688 0.026998424817405
-0.005074069562527 -0.006621441689437 -0.031369175451614
0.005074069562527 0.006621441689437 0.031369175451614
