ply
format ascii 1.0
element vertex 108
property double x
property double y
property double z
end_header
-0.071454636997736 -0.050543427892522 1.023231017480694
-0.056568687185034 0.019765928845015 1.021559721502377
-0.064583725027938 -0.051447184720091 1.042190671074772
-0.049689566240362 0.020718939521829 1.043603640875013
-0.045300073456789 -0.015758409923563 1.005575564769771
-0.034544777188654 -0.014892106543858 1.033169777279300
-0.091009441270202 -0.047577166127783 0.978525966437059
-0.074808516294821 0.014085831292922 0.977515749466590
-0.080261327855082 -0.048489388460691 1.002038266190338
-0.065239160365559 0.016963590047297 0.998778277043377
-0.066796300287030 -0.018955036045712 0.957275239261654
-0.048841219993195 -0.015481100491090 0.994424441994415
-0.115756165620205 -0.050429784896606 0.932588543040420
-0.100951022903921 0.005145231532939 0.926272249935568
-0.106414865274169 -0.048154103143168 0.955139623142009
-0.091279311319195 0.008803099430838 0.946644616799422
-0.088091920293779 -0.026466761116635 0.911481729455779
-0.071286096482348 -0.019620476071461 0.946928852554445
-0.136047212326710 -0.061664023542564 0.890723027711902
-0.132035075856891 -0.009126584346979 0.872959832205754
-0.126672306489783 -0.055689172486391 0.910966872812881
-0.121787966439569 -0.002768989837291 0.893090547371747
-0.109048920086963 -0.040312479894484 0.864473034838042
-0.092619682997891 -0.029435331655558 0.901380329342476
-0.152319196240847 -0.076352957958283 0.840014394200035
-0.160689785307995 -0.024265473197996 0.824643345278354
-0.145736367983045 -0.071632027814160 0.859712085941407
-0.152311243796438 -0.019155129808273 0.845063426808665
-0.127051201986326 -0.057785026383988 0.813061764383026
-0.112944335195288 -0.044122983418952 0.853353721840324
-0.178404753086757 -0.091665517933985 0.785453699228397
-0.163537273467522 -0.036692578505378 0.774864634701466
-0.173561201380449 -0.085728120325675 0.806045143109209
-0.159509745169813 -0.032824099095859 0.795420164317204
-0.138239008618151 -0.067039619432914 0.759997411612696
-0.130820660636423 -0.059882162933910 0.802190003283861
-0.167916505032501 -0.099864744650632 0.727156638036624
-0.178317019667787 -0.043357753042388 0.724043897376471
-0.167107151415987 -0.097605737377408 0.748912473697264
-0.176106753182879 -0.041244968134112 0.744966778617834
-0.139362868584537 -0.073461346558808 0.712830694228628
-0.139005778177505 -0.069274256311980 0.750518610937516
-0.164054695415068 -0.100891636101315 0.667280118772940
-0.179767699446357 -0.040443310431543 0.667903231271993
-0.167141783028738 -0.102185062704949 0.689777070946452
-0.179682787862501 -0.043230257401371 0.692009655581800
-0.135180908947006 -0.071127175859390 0.663843636666182
-0.140095263061605 -0.073423893110943 0.702419148783355
-0.151848462837898 -0.092040308943090 0.608388676494174
-0.174057844360344 -0.030800073728412 0.614895571734389
-0.158271729146581 -0.097154500289785 0.632479452445626
-0.178014057188832 -0.035930169963926 0.640391621572137
-0.123987458644954 -0.062158101217812 0.612559092260788
-0.132882652512664 -0.070490980306631 0.654356627016128
-0.134194549309765 -0.080219128593619 0.558773888884308
-0.162830018976007 -0.018790343487296 0.565496269714973
-0.143058959521695 -0.086188079449101 0.583601676861194
-0.169390785613834 -0.024965031775566 0.590168087169248
-0.108903210782944 -0.049357487553649 0.560077320176069
-0.120877026758985 -0.059984262058909 0.602247850227260
-0.112647016386560 -0.065280590035628 0.493299361817275
-0.144459102798695 -0.004229417773524 0.506008650635961
-0.125098492088099 -0.071746183871006 0.522264986191743
-0.153948677753398 -0.011101868926110 0.532499012555360
-0.086713325575825 -0.033984386388250 0.494656664506649
-0.106504650936857 -0.047065644380928 0.549710411031675
-0.088677322814503 -0.050727873296730 0.434294533073057
-0.117074475678926 0.009694029735166 0.441422232038142
-0.101251420078228 -0.057473598399694 0.461459313584474
-0.128793043842468 0.003481374938102 0.467893354172679
-0.060976906692538 -0.020187921459647 0.433473635585626
-0.082007017668197 -0.030910125297821 0.483565569860061
-0.062067417698497 -0.042544294938437 0.369528030088933
-0.089884811712421 0.022250426396818 0.372402967008195
-0.074633562517812 -0.046337867452227 0.395981708151862
-0.099294092631635 0.017437401815824 0.399762454142412
-0.033041508664796 -0.010039319740817 0.368370821162120
-0.055556161440380 -0.017904287261800 0.420841562436852
-0.033873180431749 -0.034149335477130 0.298998057151649
-0.063782067325369 0.031691773624134 0.304218708641245
-0.045568404322993 -0.037968304506938 0.324861715145487
-0.074508375650979 0.027739152222153 0.331307556135074
-0.004487615686367 -0.000737268555899 0.297474522721070
-0.027643338093542 -0.008560421611117 0.354515867287538
-0.010350619459878 -0.030345501744747 0.229646328639293
-0.038353484999869 0.041417613136938 0.233487615819540
-0.018993387350203 -0.032672489591149 0.257589935641909
-0.046039137725942 0.038196103559701 0.261065410379320
0.017083518039602 0.007119489990210 0.218047816733287
0.000138654716236 0.000832184827883 0.281233065932247
-0.000114284322078 -0.027322033686353 0.156463830695747
-0.020696493106157 0.048669472846996 0.157787014833300
-0.004054335731282 -0.028047245310405 0.187232351176986
-0.024554711297083 0.045482081821580 0.184717583030334
0.027936808945299 0.012569479715358 0.131727624094802
0.020972776416771 0.008688686843528 0.198208520175333
-0.006165324926304 -0.032242031471177 0.076207248654264
-0.022821078415815 0.051645482769399 0.072096347955489
-0.001541619828349 -0.028996408030247 0.103465406254876
-0.020590802554651 0.050145292611118 0.099732118400319
0.018898214547754 0.007462214691213 0.045033666569071
0.029538328637184 0.013363698034447 0.112252087735966
-0.026345037411077 -0.044195838070962 0.010508770491441
-0.037969458894030 0.045691923741805 0.004635762029802
-0.015376820857139 -0.038584747213906 0.036493510864676
-0.029675572435864 0.048988083684305 0.031061991332995
-0.015208023811286 -0.005085203404170 -0.026745353201432
0.015208023811287 0.005085203404170 0.026745353201432
