ply
format ascii 1.0
element vertex 108
property double x
property double y
property double z
end_header
-0.131477472677991 -0.063175870992612 1.062196872149225
-0.134262770334584 0.018294420653064 1.065347929505788
-0.127585242439670 -0.059448018097459 1.078161585857023
-0.130057606394015 0.016923626234993 1.085445674192797
-0.108132135816245 -0.018505456491683 1.042175282707664
-0.103215027591643 -0.020469671889252 1.075540665543599
-0.138341366402435 -0.055507252297778 1.012591115069150
-0.140076579759113 0.025008417257066 1.023900437170507
-0.135925582577631 -0.053870450825184 1.027013416904346
-0.136194003002609 0.022300883759558 1.040769092189596
-0.119881495797112 -0.012225598417192 0.994744508711505
-0.108881889570730 -0.015872469325988 1.027525051440668
-0.159281109225740 -0.048812830809684 0.976772943394777
-0.167449831909169 0.015343136739667 0.981338235837590
-0.148769808287955 -0.048027680955202 0.997505940815826
-0.156922441835022 0.015722035901000 1.004458592942536
-0.136423273195772 -0.009729905215121 0.949058869706112
-0.123277376178655 -0.011642635376330 0.986053157248572
-0.179903896062706 -0.046743767873488 0.932053188875671
-0.187033528689402 0.014384224212472 0.932238213943838
-0.170118215174862 -0.044920600571363 0.954775876160195
-0.175709190060773 0.014747302389715 0.957117918110005
-0.149628431865158 -0.012350289224000 0.901104662473631
-0.138971256091021 -0.010775162774128 0.939930161886397
-0.194239048409273 -0.046681824698493 0.881109083802523
-0.199113252270242 0.009603069190132 0.875851154039312
-0.185750151912233 -0.042513129467012 0.906297967539121
-0.190433431355036 0.012392389130815 0.900980507971369
-0.156559899962324 -0.019045783321185 0.849874170773234
-0.149461909303808 -0.013113718744393 0.890761761163105
-0.204101957151656 -0.051532163007191 0.829530262299881
-0.205437623622003 0.003564816313348 0.821352958743725
-0.195708254711427 -0.045073715519078 0.853356664338861
-0.197424965561288 0.005345883708658 0.846506714532598
-0.160886536882428 -0.026515433029671 0.796746233591172
-0.155267406007883 -0.020208491575637 0.839500163799074
-0.211322493398799 -0.057159070297645 0.770250375677408
-0.211288169907893 -0.003805617054237 0.764248591509712
-0.205026278035672 -0.051896850098071 0.797908941845623
-0.206346391674202 -0.001817267952126 0.790923038837098
-0.160340578855200 -0.032860452106430 0.743591213029567
-0.160005388514318 -0.027146395327348 0.788799004684997
-0.208814733344457 -0.064325976090246 0.713371524504741
-0.205221492890202 -0.011896575578582 0.705531020203103
-0.205020914990218 -0.057311648940814 0.738974435350395
-0.204067365508477 -0.010250120624170 0.732785212744078
-0.156197358089626 -0.041005041085316 0.689756426456653
-0.159959266323412 -0.035345151065320 0.731811819994157
-0.204879062437957 -0.070802926085176 0.652895142441456
-0.199484106863394 -0.015145508514683 0.647932448330494
-0.202486339708605 -0.065443902915156 0.681587971925496
-0.198615829804373 -0.015089196537415 0.675634187014615
-0.147543011640327 -0.047993625616569 0.632243663311310
-0.153628459317107 -0.043309809869221 0.679369011868857
-0.198550400649833 -0.075678738859782 0.587865266635357
-0.192414540345784 -0.017035982037257 0.586187706017311
-0.197667643368086 -0.070892220791987 0.619945663780487
-0.192553443223046 -0.018585634021222 0.617672536964762
-0.139349618947808 -0.050977624107236 0.569906572627720
-0.147719187683494 -0.048866729416498 0.620617385223615
-0.188088171577953 -0.076772263827875 0.521255169486205
-0.180981868198983 -0.015816425500992 0.522562411815645
-0.190805894861824 -0.073625228755402 0.557233159915110
-0.184056502157825 -0.018638996323491 0.556936315349225
-0.126065355357975 -0.050136698580032 0.511368127039278
-0.140795764154509 -0.050364091707286 0.563186140369173
-0.165021981232093 -0.071527741678300 0.448208613335301
-0.161563085066464 -0.007106035226697 0.463627637168143
-0.169561262904453 -0.076055760955206 0.486272828445855
-0.167688755584150 -0.015787465055540 0.499261051926622
-0.106531534900465 -0.038542866917334 0.450285720839678
-0.121659613517422 -0.049228734984650 0.499360804572069
-0.137654092127491 -0.064356545449335 0.376735306568361
-0.140350899534091 0.004076450849670 0.392460560296633
-0.148951079224304 -0.069983452739788 0.416543047756047
-0.151256384312753 -0.004183711758752 0.427367014243807
-0.081036421268439 -0.026808523463738 0.382648868638337
-0.099489051762399 -0.036279125431154 0.435148525045449
-0.111044537650100 -0.055300775047795 0.306835517337657
-0.110749570150124 0.013300889030741 0.319763406557064
-0.125403019244392 -0.059847564983791 0.338783983564615
-0.122795506544603 0.008085059174345 0.353899459024756
-0.052909661232080 -0.020576128341516 0.308914501907943
-0.074968939793930 -0.031119875704299 0.365305047792013
-0.079539863434469 -0.048413015771080 0.239356606824938
-0.081252820152512 0.022803132966336 0.246937539726598
-0.092839143551574 -0.051455471457197 0.269733968886115
-0.092068473919818 0.018938522412103 0.279370557110335
-0.024929848641163 -0.011754723026321 0.231796321648278
-0.044425591475948 -0.018493121487139 0.290766492395776
-0.058952204545227 -0.046602451625772 0.162551360267521
-0.058163568711200 0.032001828529227 0.168811106921559
-0.069308781621661 -0.046775946146213 0.197469612914693
-0.067654550251340 0.029018902647650 0.201844249091612
-0.006662511367642 -0.004119087061030 0.144992749450761
-0.019119257043907 -0.008975324719728 0.212791029320271
-0.045716208364480 -0.046940859793927 0.084257868596587
-0.043419752301030 0.043270391485133 0.093408564902665
-0.054525010522858 -0.047350596466621 0.115061324619093
-0.052016714163970 0.039227995974097 0.123543785461588
-0.000555879661319 0.000198432681802 0.062818826241505
-0.003374964504272 -0.006231590665405 0.125589787302332
-0.036215573342522 -0.045767693600840 0.003459030241766
-0.038894950851396 0.056812081256764 0.010443860641200
-0.041297058910293 -0.046773532775758 0.034539487561976
-0.040160897730839 0.052042993086695 0.032567763900772
-0.006670019631278 -0.001003962109010 -0.033038639291643
0.006670019631278 0.001003962109010 0.033038639291643
