ply
format ascii 1.0
element vertex 108
property double x
property double y
property double z
end_header
-0.131705647408788 -0.038760278128476 1.046625267450879
-0.130042746046757 0.034809586069864 1.056188283345950
-0.125636781100358 -0.039868625119660 1.062905399337884
-0.123824576638483 0.031268207951640 1.072315811214238
-0.112666709093554 0.000372369040681 1.028151294096788
-0.103918766243547 -0.003720516446353 1.059952346529757
-0.143731402700765 -0.041663817153491 1.008844219602244
-0.151170404258779 0.044392661395016 1.016643783068043
-0.140175297406026 -0.038662012312762 1.027090937387696
-0.145674628250258 0.040169770487711 1.036113364337926
-0.131147284285394 0.003949041599174 0.984949121789553
-0.117570351039431 0.002430618917093 1.017969482871244
-0.172323200237611 -0.034377419614195 0.969844117021724
-0.174414205385928 0.038672422903057 0.968820578253920
-0.161584041556019 -0.031259320862364 0.991314816879815
-0.163609028326854 0.036854378353944 0.993873790757743
-0.147232408041991 0.004658993073940 0.941260952657318
-0.133851498593782 0.004196102681058 0.978250287809846
-0.190193613271417 -0.029949109986187 0.922968275924466
-0.192979588801148 0.033427008895294 0.920685817481451
-0.183723050527694 -0.028086122157019 0.946508905833446
-0.184816162508690 0.033502422195725 0.947437987538084
-0.155273954252944 0.002239927372906 0.894494549716578
-0.149848259291288 0.004576977935760 0.935368050716561
-0.200726845398634 -0.034841833508096 0.873453984979464
-0.201640438176247 0.024824052558910 0.867523503346909
-0.195685072693718 -0.029563918145265 0.896667316086237
-0.196396293752666 0.027292632043055 0.893047731582381
-0.160247423328849 -0.006872893971107 0.846956239592973
-0.158059929782674 -0.000808852082570 0.887693895085446
-0.206945268723744 -0.039435189079808 0.821179110188379
-0.207964744822164 0.016300318275504 0.815572626439157
-0.200312199204681 -0.033509277950310 0.849037595901504
-0.200404117099482 0.018821966378471 0.841570409574643
-0.162743679748170 -0.015800609941334 0.792120359589268
-0.160565073291271 -0.008400965492974 0.838539658214556
-0.209393788777808 -0.046682229509452 0.764642495214009
-0.207200455144394 0.008282640247179 0.758479679676085
-0.205184101545999 -0.041209559933049 0.790238074080528
-0.204499287838044 0.010118458974846 0.783098186555874
-0.162414349611270 -0.023626326841289 0.738907516004268
-0.163637720929375 -0.017505153664546 0.782758191911843
-0.211895885284367 -0.052499972066614 0.703772027674797
-0.207362200169225 0.003271337562640 0.705034248268881
-0.205791724535668 -0.045681289340093 0.734390843317170
-0.203909946860601 0.003551407833265 0.732653036488380
-0.160863679490958 -0.027278666617050 0.681830566001894
-0.162210454391586 -0.023064154965348 0.729781744901596
-0.209229758501449 -0.056532933180241 0.644772927220357
-0.206607559331241 0.002194222342341 0.641774169381666
-0.206583437231776 -0.053677130520482 0.672846480493971
-0.204374868588174 0.000085189098635 0.671099532659068
-0.156141841999992 -0.028161789374287 0.624179002198591
-0.161187931291128 -0.027632880603923 0.672068479307032
-0.200023749678453 -0.058104424481144 0.579385533077209
-0.199753836081287 0.009614180137619 0.582046581523398
-0.200977461316228 -0.056777962927433 0.611504997223110
-0.200464041472889 0.007262402398250 0.614390254235900
-0.146635449559454 -0.026287629204314 0.563718102516603
-0.155444332450214 -0.028189974143135 0.615552431596415
-0.184570371010989 -0.056264543084094 0.513338209076081
-0.187617373048609 0.011318469943995 0.519408091051857
-0.188454282941609 -0.055824759123331 0.547270131600692
-0.185879058386147 0.008115816885620 0.552022439112034
-0.132733502762812 -0.021376623670179 0.506275004436041
-0.144793028994039 -0.026496348843891 0.554825173152972
-0.160571167295346 -0.050241381806228 0.441096583849307
-0.167286759786261 0.015199588789414 0.450766498732531
-0.167298693877575 -0.052839712793809 0.478526210796270
-0.174055420895998 0.007829144777247 0.487390193640544
-0.110729069714464 -0.010557227268263 0.442744758034823
-0.127305268632791 -0.020458968223183 0.492457358029106
-0.140945935004708 -0.042915881074117 0.373421145092743
-0.145707129605326 0.024713090901373 0.382489784907210
-0.143675033163069 -0.049809469267396 0.408235936457755
-0.152056574018053 0.019329800051408 0.414503873565977
-0.086488391087340 0.003403120400767 0.374888022657021
-0.103949236263923 -0.007751446225288 0.427805560961207
-0.103112834204596 -0.031292330051105 0.299019195421296
-0.120059497787330 0.038955032342047 0.304953231889561
-0.117242798320387 -0.038814616331480 0.331782846581317
-0.131683048810342 0.031961146998362 0.339525786592583
-0.058526307304936 0.020132431171484 0.299640529920134
-0.080217153060245 0.005493871632247 0.358168106809252
-0.071408270169485 -0.019575337632273 0.228524518029425
-0.087333680235943 0.054406633591655 0.228979029166703
-0.086504133931201 -0.024266451186026 0.260706699633932
-0.097788959894364 0.047957399862196 0.265108094077275
-0.028131700229165 0.032275496041910 0.222665640944754
-0.052645085538656 0.021695797133620 0.288789139996823
-0.046007445516537 -0.011443143110701 0.157114216525248
-0.066040976080217 0.065028482694799 0.152757257528287
-0.056707501005313 -0.008483488464826 0.190916133629587
-0.072618183895257 0.061492436830141 0.190567505813117
-0.005281470198542 0.035216868675560 0.136528670759086
-0.020498960124926 0.035664016224580 0.205760873640037
-0.031239896224374 -0.025889995438404 0.082053098746329
-0.043330908143324 0.056352906143185 0.072195285404118
-0.039049616363631 -0.019416893526317 0.115080061665768
-0.049435830642533 0.060310200039544 0.104268282768945
0.003115305666630 0.016285591098989 0.051355061050979
-0.000742452829833 0.028221459830857 0.119962628514218
-0.026861100379477 -0.052046222679846 0.018682058201577
-0.035786023264504 0.048301457175610 -0.002660159737261
-0.030696260277495 -0.047170765502817 0.040849251942100
-0.040463679225923 0.052158707838401 0.024649103858583
-0.006200649146557 -0.010910679504627 -0.030125836104369
0.006200649146557 0.010910679504627 0.030125836104369
