ply
format ascii 1.0
element vertex 108
property double x
property double y
property double z
end_header
-0.043417142172575 -0.057457176935765 1.006867633128770
-0.047324726143913 0.012677115590890 0.999532620832731
-0.037496976315052 -0.053498123207165 1.021725922655189
-0.041058912272065 0.013438181734939 1.014771786562890
-0.027065543422125 -0.023119528698699 0.983148538946587
-0.018067943589283 -0.019699878026206 1.010465941047582
-0.062300824225842 -0.067347834245724 0.965420524509711
-0.059458549852592 0.007353083899700 0.953832280228010
-0.054274058392201 -0.058662484273605 0.983021580212008
-0.049325412797309 0.008850053195358 0.974152997904035
-0.041920859140347 -0.031774454325414 0.933847831632764
-0.026669340668446 -0.024239510616722 0.970639329141610
-0.071316724416823 -0.068758334349182 0.920712978333957
-0.077542963764198 -0.011059592686000 0.905177346801968
-0.064394156442311 -0.060756273999026 0.934871736670565
-0.070856470409661 -0.005419879816936 0.924050048640353
-0.044605292924661 -0.042012818439989 0.886633136392154
-0.039186785634585 -0.032951167353664 0.921988742050626
-0.089921326008492 -0.080014655885162 0.870550552906328
-0.092528669534150 -0.027202567353681 0.853251453113302
-0.084369912367441 -0.070344746645238 0.890001546061862
-0.085847895041532 -0.018442643422151 0.875770272556133
-0.048845943414103 -0.059013851149847 0.839588405727747
-0.046982738201216 -0.045638805650483 0.875342501684667
-0.092470794651540 -0.095713846868005 0.822935079822504
-0.092753077675813 -0.044644638694657 0.803375657045004
-0.086095178630866 -0.085931390425535 0.843347299289217
-0.085652081209459 -0.036276113672795 0.824348553734159
-0.053208748794114 -0.079994983000164 0.795558887820992
-0.050136118662806 -0.063488974977928 0.830014344613569
-0.099103759458524 -0.115537252311640 0.776974874132228
-0.095500190186748 -0.063468387075023 0.759320518636856
-0.090305404774905 -0.103206013489551 0.800056200833315
-0.086427787640018 -0.055441849995859 0.779202942735485
-0.056674607870905 -0.102826738567149 0.750477556830276
-0.050844113768256 -0.083244897850930 0.787376568943181
-0.106407661145729 -0.134908638909275 0.729154665791739
-0.102859450457320 -0.082953464647589 0.711594328386299
-0.096031815590646 -0.124448154197806 0.752192300387772
-0.094179590592641 -0.076699317254053 0.733168391840275
-0.061201887719678 -0.135335494762835 0.703864257108964
-0.052180726175733 -0.112829485570701 0.747093363101675
-0.115980807242001 -0.153227297405043 0.677116911163957
-0.096830626223354 -0.106918469892246 0.661734773885848
-0.106389589542069 -0.147711340707885 0.701689717053260
-0.089988579824647 -0.098361222427090 0.683133840165133
-0.063773088038015 -0.148921909398689 0.650055942831366
-0.058492977206355 -0.135770128268604 0.694074938032192
-0.122054467353404 -0.168531658161067 0.615134513169709
-0.100211846143758 -0.114836577349445 0.613183923746714
-0.111847442602140 -0.166468521535526 0.646374368283028
-0.095402740779665 -0.114840466175550 0.640132344876759
-0.068889410664343 -0.165644319155902 0.596122271100525
-0.062471246310999 -0.156466689549881 0.647119421613706
-0.119072652749353 -0.165953823962905 0.552026414395520
-0.095829596633226 -0.113349444496286 0.562164126540337
-0.115056639156050 -0.165715690552639 0.579632733400613
-0.095149052064982 -0.116955072558353 0.587655381653673
-0.064218244249713 -0.153329779410614 0.537139530559511
-0.065871452852971 -0.157656670337780 0.585834496018979
-0.110207273004055 -0.143749770680041 0.491545789540942
-0.095631495256386 -0.095018662013252 0.516910085919698
-0.114153745236435 -0.158229700301965 0.521570958382876
-0.100806607783231 -0.110832458988932 0.540929992238768
-0.056446768412091 -0.123828687074847 0.483283177841801
-0.063548679896352 -0.144682631436107 0.528155655995271
-0.095916065825426 -0.116148713027913 0.424084950583718
-0.096333542745441 -0.060822384042799 0.454915792692661
-0.098277269534134 -0.132843214738967 0.453922083245787
-0.097785904918138 -0.081374601249265 0.485985911984253
-0.041141721392637 -0.075351038368264 0.427598390591666
-0.053583448626982 -0.106586318392048 0.471177033424806
-0.071998184002973 -0.077584825833438 0.358444082243281
-0.091902797285843 -0.023335701679200 0.391811811499053
-0.079166434285483 -0.097359506573531 0.389195775303279
-0.098917553314474 -0.042201540883283 0.422857911570589
-0.030025168841934 -0.039530146104142 0.377573446604546
-0.041582302514801 -0.071324273314555 0.418486413520463
-0.045834848237033 -0.042278173632984 0.302336785474643
-0.068444940716075 0.016634339283676 0.328500121240583
-0.064728595487276 -0.054848232128769 0.326998576855390
-0.082774349892317 0.001816081790683 0.365697657945608
-0.005015213147618 -0.000277707934739 0.312367440524355
-0.030611009056815 -0.024923715256592 0.365298023874777
-0.028071376856265 -0.015323804886545 0.241806978407570
-0.042893523175362 0.056900388539428 0.263573195621990
-0.044018766446350 -0.024542152789423 0.275141767018694
-0.053108325578834 0.041759815988736 0.298450933178594
0.018632509637829 0.031317174126450 0.241606360731486
-0.003029853044161 0.007317169446855 0.304057934157487
-0.014123987656147 -0.009135081273352 0.171702423962888
-0.025043811356871 0.074945685435515 0.171858205761535
-0.021259068539532 -0.009625530871440 0.208249840445073
-0.030230361607552 0.070747354524266 0.212907967854530
0.027790008849899 0.041401586478192 0.151028966883760
0.025564456545886 0.040768622841106 0.219895502100431
-0.011591904353329 -0.023808994691534 0.106835203262720
-0.020336272980442 0.064243864751105 0.094112565530962
-0.012592018925550 -0.017238479856695 0.139387651563460
-0.023459229096629 0.068028836322921 0.128344986708737
0.019889286732930 0.017844221711050 0.061922693075823
0.030725157540698 0.031082014524382 0.133230496068054
-0.025141718272907 -0.059058229518331 0.023577037652139
-0.033115413067949 0.049891122618238 0.006349995519281
-0.021722982618321 -0.049466554309445 0.051871221368730
-0.029845825332185 0.049363157285968 0.027493771802545
-0.015351484178228 -0.008797668420189 -0.025489196323046
0.015351484178228 0.008797668420189 0.025489196323045
