ply
format ascii 1.0
element vertex 108
property double x
property double y
property double z
end_header
0.021231209989662 -0.067546822625085 0.982324531577340
0.021881855268136 -0.001372973886239 0.977159912561345
0.018793244085110 -0.065360420022645 0.998136872650523
0.019535477944450 -0.001335361509030 0.993360100744970
0.047490510950775 -0.035329134947137 0.970794384073032
0.042123420112012 -0.033259477255775 0.999013680664683
0.031866475999853 -0.069656046583381 0.941055938220080
0.027702492759349 -0.003226726762972 0.934608102127095
0.028887038405219 -0.064872680300005 0.958125363095179
0.026471297996291 -0.001919818773065 0.953425525597554
0.057061395533191 -0.030986126560566 0.921073019528571
0.053155081500191 -0.027798599710205 0.956341461776120
0.030892706208083 -0.065005056328884 0.895468027389167
0.019609237281575 -0.009423732262492 0.885445305807810
0.034442923838675 -0.060100548882550 0.915672712564481
0.019286845476925 -0.006468718289422 0.907494951356094
0.062244576501575 -0.029118207983326 0.873207850223000
0.057980212176442 -0.025345979632714 0.913453826545361
0.031931198596998 -0.074192978525172 0.855538336966065
0.023141381432209 -0.025060955969058 0.834982440112656
0.032966760151326 -0.063266338709719 0.875618705907615
0.026690377881723 -0.014896333146412 0.860110438922909
0.068733932751219 -0.046734721981466 0.826073435674633
0.063127246184910 -0.030882081932702 0.867732074268275
0.030585701285019 -0.091796548003883 0.808523598163363
0.029995138115593 -0.042518227954599 0.784002526348984
0.032575493733865 -0.079423785555606 0.829455618788862
0.032701519621137 -0.032154308379988 0.806729438923247
0.073448180185567 -0.070996414934832 0.784359111223824
0.069286639307220 -0.049556382980794 0.821788067034954
0.025995281612002 -0.114069425453265 0.772528553174275
0.040098457648112 -0.068803173718354 0.740264460615355
0.029413611686146 -0.100417109471232 0.793121085460030
0.042364237020636 -0.057027080344893 0.761376483331783
0.077450967523747 -0.110099610004197 0.745713126350143
0.074134728187741 -0.083080978648650 0.782781589506983
0.027862711716811 -0.139071398376245 0.725518454859671
0.044185262244473 -0.094244771829492 0.695310831236468
0.032766974926930 -0.125276448444276 0.749547879171959
0.046827898097734 -0.082121863029818 0.719404245437254
0.080309996664068 -0.142576920779374 0.704188817675104
0.077937486065308 -0.117960841077110 0.741755766948073
0.022604061757794 -0.166574350147413 0.675404602716671
0.050148533685621 -0.114393526911423 0.657002869285237
0.033492600723606 -0.150341190074677 0.700267605232950
0.052300743217871 -0.108312289378119 0.675200177004177
0.082546711926930 -0.167650699149754 0.655883046236512
0.080818496465037 -0.148247597234182 0.695580956490969
0.027360073585017 -0.177176400032276 0.621294801849529
0.056008737443768 -0.134107297293293 0.609997899931161
0.038335804879814 -0.170942270627979 0.646137532759910
0.055950853460661 -0.129857831377314 0.634968122146107
0.083937392938803 -0.178515058730218 0.599527004894098
0.082880094361283 -0.167522230900325 0.644957383365921
0.028251535772115 -0.182225739554487 0.565532254511129
0.052468289261802 -0.131386017378595 0.566095951696834
0.033575396800709 -0.181491809726479 0.595643404829153
0.053529007146341 -0.131650036727705 0.593903466028910
0.083436708696734 -0.173110843986677 0.541604920936980
0.083563223056438 -0.174511050210960 0.592514738906762
0.026749971518340 -0.172487553164355 0.497958199548001
0.042320518738036 -0.115264717492623 0.516836193599939
0.036069048562428 -0.183583937149680 0.529585568292738
0.047946499965381 -0.125535094596642 0.544584602767829
0.082547444635577 -0.153916808271696 0.483187281698321
0.083346341296946 -0.169518861963210 0.536578539619039
0.024946287065814 -0.155261817111244 0.429200087411433
0.038601533882434 -0.094724695993232 0.458094208666906
0.032325640085262 -0.166710145483311 0.464101931099301
0.044755553808000 -0.108560189136997 0.490996978929733
0.080951849438779 -0.119543491754479 0.424585244116851
0.082081686172345 -0.141005016495493 0.470927844854102
0.023173132140243 -0.123820556362826 0.367636197242856
0.035397398969409 -0.062077641048183 0.394175392907096
0.024724276345794 -0.136508627765499 0.401515423895826
0.033609589870900 -0.074716865207727 0.424773306002897
0.082016230866552 -0.092906357367767 0.356784049473174
0.080690272451825 -0.113195548273693 0.407552698910314
0.026544568860984 -0.093371627358567 0.298960392710960
0.033750025694894 -0.029844566488649 0.319705816867707
0.023308439003709 -0.106079481894707 0.330670069060369
0.033969105580327 -0.041541038855810 0.353548163852115
0.084027760338591 -0.062185837691713 0.285330057988335
0.082051400881605 -0.083264888519029 0.341447236311849
0.024963872073340 -0.066921577913038 0.226663786282151
0.035159024422941 0.001448198640657 0.245149292735551
0.022394507084772 -0.075928521073534 0.255333454455447
0.035871949936404 -0.010006479873017 0.278499992217868
0.082156178218116 -0.030392388320337 0.206907518798759
0.083736142297113 -0.051392550850001 0.269292775360544
0.022144164963737 -0.053298814513097 0.156172085486946
0.024500311736049 0.026204714166916 0.168066144952563
0.020654324048313 -0.058444627340488 0.181079538994473
0.027010815796647 0.017041215592193 0.197113158079028
0.069634675914512 -0.011244269013897 0.122326807667951
0.079406566902403 -0.023774563821265 0.183964212937437
0.005654312628360 -0.046367634949354 0.081462913720012
0.006607810814231 0.038928199820857 0.089134373253371
0.010642104624228 -0.045796122204749 0.111102932378060
0.012306818670054 0.036077963184299 0.115773217293592
0.036212659457227 -0.001276989053491 0.037708484159934
0.064891852842933 -0.003334190697855 0.095377295161431
-0.022740345566123 -0.046783569224595 0.022401712053133
-0.020675816835289 0.043374520126645 0.025723080349667
-0.007570345740082 -0.047771748953088 0.041436017283083
-0.005987939298928 0.049105522926716 0.044309212123912
-0.023734631200007 0.000668108167892 -0.017125232850374
0.023734631200007 -0.000668108167892 0.017125232850374
