ply
format ascii 1.0
element vertex 108
property double x
property double y
property double z
end_header
0.000000000000000 0.000000000000000 0.000000000000000
0.000000000000000 0.000000000000000 0.000000000000000
0.000000000000000 0.000000000000000 0.000000000000000
0.000000000000000 0.000000000000000 0.000000000000000
0.000000000000000 0.000000000000000 0.000000000000000
0.000000000000000 0.000000000000000 0.000000000000000
-0.076925854783615 -0.058161758603102 0.482612254694066
-0.074954323880767 -0.020868611052951 0.483256994660159
-0.072080650634008 -0.053627818242574 0.492847810161189
-0.069354043720429 -0.021360477525620 0.492470199566321
-0.061768876188682 -0.040082036257347 0.479573948454389
-0.054993807510976 -0.041150263384236 0.495278977797353
-0.086276399029549 -0.054361407760401 0.465917540066512
-0.082461675465244 -0.021440035620964 0.465349164257628
-0.081287322484895 -0.055064364507941 0.475289425626342
-0.078532841202145 -0.022732128775261 0.475350110450892
-0.071850396730332 -0.038487390054336 0.459138261197630
-0.065957726051707 -0.039751608839461 0.473599977532347
-0.098346726775774 -0.057868497010778 0.448910835754848
-0.093714500228116 -0.020280490899237 0.447887323761838
-0.092594589375055 -0.052649021383443 0.456597047874842
-0.088576034486185 -0.021789481488648 0.457233948174606
-0.080556346189178 -0.038057369838265 0.438934279634609
-0.073264004712735 -0.038294156797216 0.456985982432186
-0.102007270235599 -0.046895287013656 0.426959624853404
-0.102951369312272 -0.020466029669033 0.421916396539475
-0.098750034054722 -0.047672139875302 0.436663534800186
-0.099935565818541 -0.021870201016040 0.431683314174905
-0.087970638030745 -0.035415547464249 0.414312355736934
-0.082648666025102 -0.036789811935999 0.432612459813950
-0.109422578330209 -0.047886133730294 0.399730866722184
-0.108052088512617 -0.021627606896846 0.391904847219315
-0.107650378202736 -0.046456265699208 0.409336780839848
-0.106664903109324 -0.020942942704074 0.401588867642262
-0.091420671931724 -0.038632569060437 0.387003603973353
-0.089412555919338 -0.035918737899395 0.408527988596861
-0.113342266315924 -0.053474799570144 0.370528980719048
-0.108934776869710 -0.027654132619095 0.362015393443286
-0.112341111889853 -0.050681410313759 0.380220695629318
-0.108367272134862 -0.025681440284198 0.371922263640597
-0.091643666885094 -0.045607839587555 0.358216204032635
-0.091738323597072 -0.040068534609779 0.379326247772731
-0.113535354394038 -0.060198910416708 0.341475758018160
-0.106975150645362 -0.034010940580224 0.333463473850463
-0.113927918426534 -0.056365313581610 0.351786080673425
-0.107461790673811 -0.031334130065738 0.343875712168012
-0.088539449376648 -0.053025906083280 0.330920228021590
-0.091299157103617 -0.046082139400486 0.351600106366610
-0.107683188658115 -0.069647886028777 0.308703629896993
-0.100889827425641 -0.042351329301708 0.302552830945521
-0.110479917031640 -0.065379187712396 0.319507706352007
-0.103418410174898 -0.039364561609197 0.313330194463413
-0.080580155546178 -0.061769311725700 0.301693806766423
-0.087577928819242 -0.053955342080337 0.323007391473073
-0.099531097107544 -0.082998837787817 0.282917805907409
-0.094880432826111 -0.056505992038522 0.275853250291539
-0.102411738946596 -0.076207944598447 0.293928617267111
-0.097610524035837 -0.051270256362504 0.286901663013821
-0.073089789905415 -0.075799701233292 0.274900150116487
-0.078758013840607 -0.063654461119919 0.295676427321558
-0.085526549463038 -0.099061588201814 0.251855015404073
-0.082974738072805 -0.069625238103825 0.247249066256520
-0.090979763290196 -0.092764884349211 0.264005046424648
-0.087784228186911 -0.065067488386297 0.259581587287763
-0.058347878088923 -0.088590262028783 0.245795824405451
-0.068597225561626 -0.079139544268640 0.268258791303401
-0.068219614966758 -0.114552333331774 0.213996395625160
-0.069705957631217 -0.081203409019369 0.212512811361816
-0.073880289593633 -0.110724253298908 0.227601701002889
-0.074781415684501 -0.079314920508010 0.226562219319207
-0.042392269781428 -0.099967505199883 0.208999189056165
-0.054039981440894 -0.094350964990862 0.235791539095046
-0.050380018697094 -0.105732273174133 0.171472448485198
-0.054140154955104 -0.070096198799616 0.179025386277591
-0.056069438767177 -0.109246185837796 0.185141632625611
-0.059564042623029 -0.075243520460920 0.192655081728345
-0.024981241937774 -0.086222973155303 0.171147973406563
-0.038186724332701 -0.096025024110210 0.200479649441153
-0.034828153205566 -0.093316419393388 0.133933512877719
-0.038144767599938 -0.057848317128930 0.141461044344044
-0.039967925558552 -0.097747573017596 0.147595002530809
-0.043250277707484 -0.063575774098612 0.154997389693875
-0.009016342173889 -0.072507331732938 0.132622256094617
-0.020815185178706 -0.083994039874638 0.161842289473515
-0.023331137354432 -0.067894559172098 0.098758817384591
-0.026675771296982 -0.035895073721400 0.108954158267024
-0.027181139417219 -0.076006581316985 0.111644905966096
-0.030519530662506 -0.045286848805066 0.121796547967693
0.002501434275117 -0.045992418774716 0.096113655893435
-0.006348532757781 -0.064888337492769 0.124186775124137
-0.015469984532087 -0.047060645901605 0.068592652422934
-0.018224320635831 -0.011594866501245 0.076886438683459
-0.017393896720935 -0.054132315288774 0.082139886198222
-0.019970098184193 -0.020278748751163 0.089854117866393
0.009273454193694 -0.022168834231589 0.060957978850106
0.005799901293726 -0.039073477701965 0.088115744447342
-0.012702291959782 -0.031572513993755 0.036416629300817
-0.015844836725839 0.008692012274260 0.043751217868035
-0.012907575074408 -0.035907704294931 0.049669440051733
-0.015987402509830 0.000618462565989 0.055861469840938
0.009584427624761 -0.003915913331556 0.024119677126069
0.009986137934642 -0.018701959565903 0.054090866682533
-0.019664641555357 -0.026446678825355 0.004829307048439
-0.023341154705853 0.023399081129288 0.010821715704255
-0.015074226561456 -0.025773338595060 0.016903119090811
-0.018754659545117 0.017172063199613 0.021569462704902
-0.005594763358106 0.002309507629051 -0.013254189951474
0.005594763358106 -0.002309507629051 0.013254189951474
