ply
format ascii 1.0
element vertex 108
property double x
property double y
property double z
end_header
-0.115111021757432 -0.055378813603737 0.995296745841025
-0.118055540831771 0.013541470869920 1.001818488690114
-0.114368133294112 -0.057725841345191 1.007886092689608
-0.117082288789917 0.003528833792277 1.016675349224444
-0.095204337136658 -0.022229858145517 0.982173064538092
-0.095889066747803 -0.025954296514833 1.011356540446694
-0.120404840403388 -0.056959780214208 0.953602982773514
-0.120575000482601 0.015491609881889 0.962353163829546
-0.118286813142370 -0.055417889082541 0.969509428843177
-0.117657516187203 0.012276743018146 0.980208158630063
-0.100995005039275 -0.018195542141959 0.936959782181972
-0.094316278725918 -0.022156250848234 0.971632454130554
-0.138931842566138 -0.047303820472165 0.910141054290095
-0.138687166457576 0.015288281082295 0.914383924302621
-0.130218010792715 -0.050233799833460 0.932717366535478
-0.129588713837548 0.010956355327377 0.938748166886330
-0.112277822361083 -0.009261797208752 0.887017912524464
-0.103380653893501 -0.016574136954585 0.924140298937871
-0.152481719207661 -0.045166937020793 0.866736830292818
-0.157510869639621 0.010851623956860 0.864422062539679
-0.142114903807598 -0.042289664119281 0.891569978622182
-0.147620002658718 0.012247209226026 0.887320065936151
-0.123991151498791 -0.014855043070200 0.837497467362204
-0.115474060217488 -0.011870994151024 0.876522511537172
-0.168211644073654 -0.054951482350065 0.820951728284657
-0.169698329732359 0.005523273492425 0.810698277209730
-0.156200478001570 -0.047052328873115 0.842358047996065
-0.159826773307842 0.010419976225879 0.831092950949529
-0.135410278630382 -0.024426717913193 0.792677438807309
-0.127472731223676 -0.012659773583637 0.830966864375479
-0.183988141457990 -0.066162509838721 0.782517587135100
-0.183289099316817 -0.011609052133223 0.761237353997742
-0.172436793810909 -0.055336103196671 0.804260137710641
-0.172212336990798 -0.003808723268366 0.785044998191502
-0.145389974170661 -0.047764774812250 0.747846051101600
-0.136070926841800 -0.032574863976015 0.784585634132531
-0.192200807497443 -0.082471751396294 0.733829086178551
-0.192753089410082 -0.035255850751439 0.711484046243768
-0.183494927129591 -0.070476033769318 0.756073938403144
-0.184808044963838 -0.026880067306279 0.736786327501803
-0.151839927186597 -0.071638983629787 0.697437320345584
-0.145938393972023 -0.052890478026140 0.738005391567300
-0.200343046801841 -0.106221463920896 0.678029075262584
-0.194948813262677 -0.056331391991106 0.658534046267356
-0.192804432771767 -0.092715660784536 0.701118139575769
-0.189380330350007 -0.048979295217420 0.681663321974427
-0.153185305009160 -0.093323148170138 0.647752849045551
-0.151010254811049 -0.075976816143129 0.688290023377049
-0.203590173653899 -0.119919918255084 0.619796842974047
-0.184544739847939 -0.070647784129645 0.609049723204688
-0.197979661883212 -0.113596051813197 0.644718365496755
-0.182541667193172 -0.068310752440908 0.632732416739480
-0.150738543923547 -0.114234663272032 0.595404884062349
-0.151669994290401 -0.104587109301593 0.638099161133671
-0.193028662408861 -0.127529867752277 0.552096304114936
-0.176020833076148 -0.074805006145024 0.553489617553940
-0.191674424448662 -0.125626074075635 0.579428011257631
-0.177250347560395 -0.076090634834298 0.578402961488060
-0.141116888816966 -0.114182411178282 0.536652629849488
-0.149428606651528 -0.111190183670519 0.584112070687823
-0.187159161999586 -0.117964781216756 0.476773547875751
-0.166495957934513 -0.063492200665063 0.500162266587444
-0.185874669225393 -0.125485447788542 0.513092160777469
-0.166707919688727 -0.072188084980198 0.526420306795078
-0.127387083226529 -0.098148288253455 0.476579760762843
-0.138391146987330 -0.109760748131923 0.525126953883249
-0.158396429037181 -0.091480012358849 0.407727631194078
-0.157483153311632 -0.037169640480799 0.440714832344688
-0.163098208742645 -0.110628360071195 0.443047320373099
-0.163259054318189 -0.057569312246956 0.471078751206015
-0.107132808590807 -0.063638506527564 0.419599306894151
-0.123848026198518 -0.090930229459389 0.463857284666705
-0.127051988277478 -0.064554962815342 0.345534690199267
-0.140173624933265 -0.001280857845932 0.380410918130459
-0.138265969145346 -0.079140794011219 0.374368985811808
-0.147762446409942 -0.018412047556499 0.406194373017030
-0.082296706882230 -0.019577496430147 0.364378612669763
-0.101477314582892 -0.049335291003971 0.408905575133623
-0.097349399176616 -0.034367110791651 0.291852479361302
-0.109179273201689 0.033561292632815 0.310616887776091
-0.113570493723863 -0.045059025088048 0.320774467618137
-0.122107349927583 0.021289774824044 0.342582674085390
-0.052328995201340 0.012723384828203 0.297535689697206
-0.077233024631792 -0.012985099662987 0.349849577227962
-0.062090595045965 -0.010339326255091 0.230647102938372
-0.072969480964782 0.057892593679160 0.237352864030668
-0.078497298117533 -0.016926043446843 0.258228484215987
-0.086563885477501 0.050860143409415 0.266165577256660
-0.015351778735352 0.029775060483063 0.224387302107083
-0.042558762402095 0.018432266844950 0.284746648977291
-0.030586671808815 -0.013132314257553 0.162506283393660
-0.037715902043506 0.062216568028507 0.153820167948226
-0.043581540341504 -0.009104359378453 0.192371989900229
-0.048951010931890 0.060582894958252 0.185412011012687
0.012089203438186 0.024747273149201 0.145763576640976
-0.004847063244391 0.028448084484821 0.203656851869184
-0.014785184292686 -0.025371344894993 0.094435890584003
-0.016946149143786 0.053215804105490 0.079820752779022
-0.020768049027098 -0.019772419458138 0.120826832856176
-0.023593751383908 0.057436864548450 0.108262021773354
0.020047651682392 0.011297584217868 0.059129378019928
0.019978815228451 0.022295968403262 0.118861926948148
-0.028136957343991 -0.048709628977065 0.010375675537700
-0.026727059544797 0.048282752089427 0.000749703953809
-0.028976852955273 -0.044653957769975 0.036648255458377
-0.027201190499827 0.052577192646654 0.026551787847717
-0.010900809079890 -0.004649527611713 -0.031180868987963
0.010900809079890 0.004649527611713 0.031180868987963
