ply
format ascii 1.0
element vertex 108
property double x
property double y
property double z
end_header
-0.033238611984825 0.047959315213219 1.044052610210447
-0.039571099593586 0.116265300462221 1.038647964916127
-0.029608591772415 0.049061435553648 1.058765496982526
-0.037117600805790 0.114581288373890 1.053809574180369
-0.011561262635991 0.083364098841664 1.024548235717212
-0.007582975869986 0.082536133469028 1.056402900686691
-0.041873769724339 0.048267630990092 0.997747633501401
-0.046787136264335 0.116392969248701 0.996375121672145
-0.038515298994283 0.048287606378453 1.013822610160981
-0.042384734368641 0.115924560866559 1.012494391584178
-0.017884196798145 0.080765850862848 0.978921553717287
-0.013993338543516 0.080942155377511 1.013661070063802
-0.058642095008907 0.051202565587222 0.951051254979835
-0.065819049398081 0.108764107885161 0.948267728036513
-0.054336385572814 0.054715338954905 0.967279955280279
-0.059605256125957 0.111216159181047 0.967711597367902
-0.030074973665883 0.078231871524845 0.929547025663461
-0.025176082044989 0.081346874115604 0.966655217771835
-0.072487644628391 0.045007010713166 0.905813948303756
-0.085098194150089 0.100358522362606 0.892199128894758
-0.069798204659232 0.048863708158714 0.924358056663762
-0.081595263727395 0.104313938756430 0.911966946915651
-0.041278850549245 0.062983702244373 0.879802808175770
-0.034554382131201 0.072942736084959 0.916508018536343
-0.079680231930195 0.028252002354172 0.857983315121354
-0.088328996093664 0.078646143709545 0.840058154302151
-0.077608871006693 0.035856256355238 0.877415894015844
-0.085677480412553 0.085830046059888 0.858645976917845
-0.046734158060422 0.043163774514713 0.831052149135243
-0.042478531844422 0.056697823875121 0.868098678088242
-0.085052453405726 0.015588764126943 0.806884534704094
-0.093066637115762 0.059803273019273 0.789899954128141
-0.084119400120409 0.021001804874342 0.824303362853108
-0.092220433345057 0.067699920386200 0.808301918782565
-0.048430618579181 0.023600921348304 0.781168972424172
-0.047796327624130 0.038707525919958 0.818278322526074
-0.081903000507504 -0.009783163573496 0.760993251182984
-0.091416785836512 0.043050580647335 0.741314888162141
-0.084428294894046 -0.001907070591694 0.775348896951624
-0.092149506241457 0.048442777511227 0.756798419627212
-0.045709333787997 0.003672142226997 0.728074679659504
-0.046720551636466 0.019202861928340 0.767750143419816
-0.086943456837217 -0.029260325218820 0.700889623592344
-0.072437561408298 0.026752400735201 0.685070274004105
-0.087891564038401 -0.023885208759469 0.719163340463524
-0.072636736295142 0.033905037260283 0.706243896168189
-0.042682049206997 -0.011590501972577 0.675208511619885
-0.045666488027455 0.000408626966251 0.715595562403253
-0.082816367902843 -0.040479256018048 0.640054723088669
-0.072337973964876 0.015807335405384 0.633664335803500
-0.083776055039308 -0.035888680174027 0.658884855850132
-0.074172235713487 0.019569656378386 0.651929946719983
-0.034891068749514 -0.017543457202482 0.618896444338834
-0.038239696534580 -0.011734382668451 0.662049941660984
-0.081935424326293 -0.039677634998177 0.576750111887804
-0.072034869158879 0.021023806751377 0.582133334301853
-0.083970018955276 -0.040123752004902 0.597107348614532
-0.071410131650435 0.014770641699295 0.603764653407942
-0.029497424393712 -0.007981325643674 0.558750549984416
-0.032272266385573 -0.014208725339754 0.606201071791198
-0.071677338657059 -0.028700724846335 0.513184662644720
-0.061385092178744 0.032283267324091 0.525891904626019
-0.074969803756009 -0.032645140301642 0.537180025538555
-0.062784816855911 0.022456534244097 0.548845073344507
-0.028422806399576 0.005848301564798 0.495079433831887
-0.029606275785359 -0.006379241597460 0.545499340543262
-0.067693840920177 -0.014208725339754 0.448615233012718
-0.078760206072069 0.051190985651940 0.461314369039321
-0.072678713560538 -0.016309325599842 0.471908272831722
-0.081133803306422 0.043077793495246 0.484840455055867
-0.029869719313016 0.025710206559854 0.429880924215711
-0.031127879281366 0.013372943510802 0.480140159325053
-0.069605688235175 0.000275457710512 0.376858137551407
-0.078263716346869 0.072493724094414 0.384409123850178
-0.070139812750040 -0.003607005091038 0.400457466658610
-0.079088207738921 0.067728291227640 0.412178098153915
-0.024672644358620 0.040415276875617 0.358906921877820
-0.027910394263364 0.028970537338397 0.412394063946917
-0.055133664116954 0.013882460663194 0.302106760324648
-0.065492205724757 0.088011416368566 0.306792291637979
-0.060090744912639 0.014217410291215 0.326316062522811
-0.068798856244427 0.084881359861940 0.332645076150988
-0.010629077845820 0.047345289144910 0.286855117063592
-0.018189328092815 0.043710347460006 0.339908590556392
-0.040996879125137 0.017980889257746 0.230118355656087
-0.044784675955759 0.084502406479849 0.225541096737640
-0.045904166199111 0.019188966006002 0.253514746397479
-0.049592665084693 0.085600184344548 0.246999585309651
0.008284140951289 0.045429967849328 0.209732169091155
-0.002918577938544 0.053997093469062 0.264347486355065
-0.026098423890171 0.004758919153178 0.157182422783106
-0.032076565479313 0.073945558480348 0.139568183226214
-0.025691968161785 0.011987404254355 0.180346346323720
-0.036216102844115 0.076878466588804 0.166407288726836
0.021722366347242 0.032915242292086 0.129357864790017
0.014909890421057 0.045101676684094 0.185798758851076
-0.020447415472734 -0.015414196602572 0.084353314813098
-0.033482080124122 0.060901050883971 0.068985293202461
-0.017202428108438 -0.005588042519343 0.108191769583867
-0.030544829539935 0.059478745333005 0.093889102019140
0.017314174483906 0.011597449933746 0.046783372785369
0.027743064198544 0.027271471334200 0.103080965147318
-0.051564438564773 -0.039239044949385 0.013702971666329
-0.047211830390789 0.055534329877699 0.005492797551651
-0.038917412246938 -0.029702678746579 0.035060425303008
-0.038528036923093 0.050651071169434 0.024743281963838
-0.009850906194894 -0.005474269655201 -0.026402397191313
0.009850906194894 0.005474269655201 0.026402397191313
