ply
format ascii 1.0
element vertex 108
property double x
property double y
property double z
end_header
-0.123331560701088 0.040510635950702 1.007895388178074
-0.125872885375381 0.114966999961640 1.005141653467491
-0.121141268704905 0.042962981708133 1.023167479893346
-0.121549540869168 0.111975897713695 1.021515673110493
-0.099648791124824 0.072145896221554 0.993876868337259
-0.096987290657330 0.072225651714107 1.020407777084680
-0.135713465281441 0.037708885178275 0.970330279908144
-0.143480944935479 0.106330076927894 0.961415026482017
-0.134053520183021 0.039650687272488 0.985967239437989
-0.141451520310331 0.107181073458985 0.978605590453544
-0.105826586471501 0.065738329098710 0.946880537434273
-0.104320455537292 0.071115856747996 0.983278611251939
-0.135010857370850 0.034434026994238 0.926487546287252
-0.143917158649854 0.093434373358097 0.911878184736295
-0.133388348524037 0.040239630042331 0.945660603930826
-0.141679393146199 0.098289149870815 0.928710662822887
-0.108081171160661 0.054764353111395 0.900316351087878
-0.106277449153896 0.066631373593562 0.936556541583551
-0.138044278859742 0.021403227386033 0.881161740292923
-0.144867985185230 0.073928458607845 0.859977976150005
-0.137341399671966 0.029378505364207 0.901658901879197
-0.144997384402740 0.081031309157270 0.878375181042887
-0.112969043490017 0.033486184507903 0.852716699724215
-0.110181941685610 0.053235163616413 0.888871437906437
-0.153934611280897 0.001594567296701 0.833453306777851
-0.147974380237037 0.047069033188715 0.810158192299747
-0.149773490531647 0.011167396620617 0.850289582745041
-0.145549162198162 0.055091513397176 0.827276053985545
-0.119250737998762 0.005567150401990 0.805303687064214
-0.115184835541642 0.030320108475274 0.840984232726084
-0.158136966162352 -0.029733064645730 0.787637302909221
-0.147114702836008 0.018906392170172 0.767478423973335
-0.156568712752651 -0.019615782010402 0.805099957897861
-0.147213447731551 0.027537889660207 0.785611947441857
-0.124029014345154 -0.020712013117235 0.759571236568736
-0.122370425632662 -0.002243733601737 0.794602615925569
-0.165190172986820 -0.051604787731219 0.731827990079063
-0.153405078214691 -0.002484085188140 0.715503614161017
-0.162637997225105 -0.044322080407770 0.753597441665597
-0.151842250348700 0.004744095421011 0.737902971372414
-0.120363245736729 -0.039098638199881 0.709314696449732
-0.122966692886515 -0.026083030114068 0.748570946694422
-0.159594538480347 -0.062060353016936 0.671282720143460
-0.149150909390795 -0.010166383805914 0.665237036786148
-0.159596708697832 -0.058587462487442 0.693179400730020
-0.147681129599450 -0.009098908080749 0.687707739897346
-0.112222759952551 -0.046508845800541 0.655197339425889
-0.121742147670913 -0.042970306192143 0.695167048668592
-0.139094392845031 -0.068991213830718 0.611683122476706
-0.130001995416736 -0.003777534808874 0.620525944894290
-0.147846608682639 -0.074957955527032 0.633274887506701
-0.133889397485760 -0.010107245379462 0.639493645708397
-0.097105296233047 -0.031029227038319 0.603592551694671
-0.106836551433328 -0.045588944864319 0.642361588114100
-0.117507239527191 -0.041574042518083 0.561434991950455
-0.139976043698090 0.011898488635692 0.576000949151723
-0.124556377193876 -0.051493564085141 0.583354188543417
-0.142881422355400 0.001224545215602 0.598420923429222
-0.080612457182771 -0.006875248990743 0.555995884380048
-0.095220191070615 -0.026300594416884 0.594694388731233
-0.100229595579100 -0.017363096261541 0.503339083723241
-0.120022792868856 0.042356677198414 0.529991524649792
-0.107174291529346 -0.028079358922578 0.526864512531883
-0.124515414338856 0.029286813675489 0.554748551880859
-0.062435258087375 0.019182552345068 0.501280903716424
-0.077811248964715 -0.003553188576418 0.546430108262956
-0.089199465214375 0.008451098161640 0.448434751584099
-0.109487743367771 0.069162932289175 0.468813907594657
-0.093666857906119 0.000011393641793 0.473929381482695
-0.112597936300176 0.054227495561179 0.492865885420463
-0.042878343226239 0.048567839638914 0.441005825857636
-0.057369699201479 0.025553225770676 0.490524763309111
-0.062031326358081 0.030562901556347 0.384866639969840
-0.079113379455386 0.092576052342996 0.394992060920735
-0.067218146145921 0.024409521156370 0.409478262629450
-0.083538995460554 0.087895164506219 0.421705539214036
-0.020799364370985 0.069655571658146 0.374026674912190
-0.034470649414288 0.055976962130832 0.425996059180797
-0.044622384252181 0.037583555118548 0.311677682969822
-0.060239540547481 0.107886936695802 0.318902879529933
-0.049050170474834 0.033731961638017 0.337497574213900
-0.064619039431104 0.107159642561326 0.345940262782788
-0.003619922764065 0.081056266658341 0.301533001338753
-0.018882791055028 0.073698686831679 0.356904201514238
-0.033049699516343 0.038202338378802 0.247794618543132
-0.039846549400460 0.107180802181799 0.233428592627619
-0.039873405841830 0.043126833128209 0.272292304784808
-0.047437156329515 0.110303473864739 0.261648744409500
0.013004214444020 0.070338647611377 0.220670155313713
-0.000040420300648 0.081760502232046 0.277312289103530
-0.027693874041902 0.020996040330513 0.172114251870963
-0.036070642254700 0.092385344481550 0.149717064877051
-0.028991935374789 0.030771513712040 0.198038856108666
-0.038135875468341 0.099678902892421 0.175040247594375
0.016277444964944 0.052004921579915 0.134729542929428
0.013425507913189 0.070215216491949 0.196308107664816
-0.024784697503994 -0.007619091033539 0.094253359181292
-0.036614824288926 0.068553643730415 0.073431207526720
-0.022771820787166 0.002211722893842 0.121223736969314
-0.030594912264243 0.074457177842495 0.098502102461477
0.011442471686771 0.020532156343211 0.054167000748800
0.021613738482025 0.038884600500477 0.112213536528242
-0.039957501769353 -0.040064384980462 0.019534670131920
-0.057088384760057 0.050274444413250 0.002208467567615
-0.030688231616074 -0.026527924698380 0.041348611176886
-0.048594424803099 0.051341106306858 0.025976418180144
-0.012041994266851 -0.009046009029566 -0.029020148202087
0.012041994266851 0.009046009029566 0.029020148202087
