ply
format ascii 1.0
element vertex 108
property double x
property double y
property double z
end_header
-0.220739938871482 0.033111117410421 0.964856287822817
-0.227184044730694 0.100174907367456 0.961884995939175
-0.218454309231483 0.035015675535299 0.980744838134776
-0.224505085331031 0.099905758954678 0.978051488621954
-0.200949003057815 0.067854713213595 0.943204497190901
-0.198534928333698 0.069220441545762 0.975828216138975
-0.229942149752729 0.028172910244883 0.927305021052285
-0.231414737999276 0.103060658022878 0.919917563330464
-0.230668317500076 0.032140317739381 0.942535356929034
-0.231335059409751 0.104162567613807 0.935584132822775
-0.206830295602386 0.063472657273272 0.901224273370494
-0.204056468049308 0.067950647301318 0.936366262121294
-0.243440608862502 0.021406625741068 0.880775656088770
-0.246439615038152 0.088406193156044 0.867230295869444
-0.237874033422378 0.028213948715742 0.903716694266251
-0.241249580892341 0.095775263511051 0.893487189195638
-0.209659818223059 0.054079377667311 0.857562804662741
-0.206977927504049 0.062087742123561 0.895890071609521
-0.244772760263966 0.011995758219024 0.834310513667314
-0.250259657114564 0.071738178381335 0.818819290368675
-0.241926982145095 0.019613990718534 0.854642944109463
-0.246659996956338 0.079255946572313 0.840385273288793
-0.207339279234472 0.038933517084473 0.807997392306372
-0.207384581442563 0.052399465197851 0.848492503152114
-0.247867434043762 0.001256736549171 0.782574859059791
-0.244925455353592 0.059281936541242 0.766828344494377
-0.245497595593428 0.009630716473076 0.807537708136033
-0.242440762481567 0.065116860943413 0.792568792648329
-0.201239736640331 0.027984506355938 0.756705965821721
-0.204268056009452 0.039046239637548 0.800704269770812
-0.244740782234725 -0.011399900940833 0.729645091543693
-0.235641434014203 0.046743351275852 0.712165634276996
-0.243253004424288 -0.002080437285703 0.755244569885408
-0.234521137056461 0.051889149147880 0.738186423153960
-0.191684967986703 0.008829666840589 0.709704658443325
-0.197330156082044 0.022755032640729 0.754235663062855
-0.231847507328338 -0.023845216954270 0.674273535011470
-0.218300281723972 0.031321946674388 0.665982964447168
-0.232343433265150 -0.019573485214828 0.701673642883029
-0.221607076431067 0.033645683465900 0.691883302747325
-0.176135118301121 -0.005777363949538 0.657863209855729
-0.186727574003619 0.001420890432608 0.701589167589117
-0.215447575032100 -0.036025115325006 0.613428672291075
-0.207625749079755 0.020460875526266 0.616644862581987
-0.216768800606906 -0.034149337426445 0.639308757839379
-0.211101760858250 0.018118484884364 0.641022780206696
-0.158893630868691 -0.010033373157935 0.608174948570359
-0.171448205148701 -0.011372453132401 0.650156504808652
-0.187718093459359 -0.029819512267216 0.554950716701668
-0.187698107191083 0.030576858593074 0.572437635508522
-0.192692009424216 -0.031534600568841 0.580662651112880
-0.194501432912102 0.023591258105381 0.595100731315183
-0.134383004422632 0.000060225288404 0.559091871488375
-0.152786093767240 -0.008146935916294 0.602056219158674
-0.158133619707064 -0.018088905207316 0.500439102672450
-0.168578177024323 0.048432057703353 0.525040600018269
-0.168144608244530 -0.024165796697411 0.522383492271920
-0.176598533241538 0.037181920532799 0.552134251776268
-0.107039124585822 0.024892497411912 0.513666015017251
-0.128416170649841 0.004961924203892 0.552305600716284
-0.127104272000230 0.006683141627788 0.449454665268512
-0.144587193553429 0.068655762846082 0.472528412267343
-0.136764568150354 -0.003619113459348 0.474969934799892
-0.150674211419450 0.053326295078686 0.501960190930012
-0.081113736829426 0.056628293081394 0.468353147582779
-0.099743070730914 0.030520630558325 0.507240296524852
-0.099424356372813 0.035274964055728 0.397443733125938
-0.116374577255572 0.096154469641134 0.417361515122262
-0.106067258980473 0.027171464962486 0.427544119083321
-0.119871374753074 0.082083337324370 0.450196822030480
-0.057071588511747 0.084468365338594 0.413416225764655
-0.070017360682805 0.060516021986367 0.457614925363656
-0.062522510079450 0.059496189337156 0.343798990172728
-0.089332623311512 0.119694562899729 0.356630174405673
-0.073055806427852 0.046905373290673 0.376507184414714
-0.099189850825045 0.105229034888993 0.394151595015579
-0.024256534355382 0.115376995985042 0.351667450751049
-0.041998477945433 0.091772680184388 0.402583668359273
-0.022680017513801 0.077448121985890 0.290852967158433
-0.051955636800344 0.133365170400249 0.282476588882335
-0.038184564991292 0.073837003033852 0.317397929231373
-0.063842136752794 0.130335785096820 0.319440792332718
0.016750224958215 0.124953882775563 0.281531904601841
-0.005122480559040 0.116775501797181 0.336890936405945
-0.001774647381086 0.063843868896045 0.237264985207126
-0.017177931099313 0.129433471705070 0.216168812833272
-0.014519490935080 0.072507249984581 0.266521151192547
-0.026992787724102 0.135467725822844 0.247519806217555
0.044651854921704 0.104594537492137 0.206046967127770
0.025327265367801 0.121366214378301 0.268529904396035
0.015458046093303 0.034707887003854 0.174314902228366
-0.006689670475425 0.105686853674294 0.137814646685555
0.009321195798381 0.048493881893219 0.201423210583101
-0.009743305784362 0.118093529569064 0.171292179014362
0.050405235349310 0.065341506598831 0.127789534518507
0.048542781629600 0.095825095939952 0.189407732579379
0.009708129952197 -0.008376111792521 0.100346256307473
-0.006995860105407 0.064552182243733 0.064395756384029
0.010265880078875 0.006965081252263 0.127653094927078
-0.007225302465212 0.077301822502112 0.088857882819072
0.030696109993785 0.019256103274612 0.048177565887310
0.044891690141011 0.049107860054646 0.098837426294452
-0.020805305549549 -0.048030200469225 0.030481990439659
-0.029167560196066 0.047585172895621 -0.000510049566394
-0.011913281551940 -0.039888061257317 0.055578081304405
-0.024651463016508 0.053639679765247 0.024748329796751
-0.017499843260339 -0.010414178189480 -0.022811260675478
0.017499843260339 0.010414178189480 0.022811260675478
