ply
format ascii 1.0
element vertex 108
property double x
property double y
property double z
end_header
0.011262364780658 -0.091037971312204 0.953486887274275
0.011962497542591 -0.018466585039959 0.956408191223442
0.013351969353044 -0.091046722971728 0.969372024476589
0.012232340377919 -0.020864248027597 0.974116590826624
0.050611868055199 -0.053981402832995 0.950422639552880
0.035046749869485 -0.055986991473950 0.978584604735695
0.031355591604175 -0.084408005778680 0.922138151136727
0.027884683436891 -0.016129016781054 0.915843957606946
0.025100197098285 -0.082510937715825 0.940518094747397
0.022177142817214 -0.016843152198226 0.933228254085751
0.061671048473904 -0.045514172243364 0.906115321157899
0.051503370438727 -0.044004802697429 0.940278007554451
0.042346217356608 -0.084329824286931 0.876714996152415
0.034238971695404 -0.016989888356248 0.871168486067982
0.039515347222524 -0.079838472619128 0.894849601574424
0.025869467970460 -0.018266463758840 0.893913174005338
0.074348119016643 -0.040662252203166 0.865119630726862
0.067106995926347 -0.042411708942047 0.900188113884165
0.046710086517341 -0.088087495164624 0.843552040995507
0.039305015671960 -0.029084681818646 0.823505197967467
0.043976068081992 -0.079717116273727 0.862840406864785
0.037129936558220 -0.020346733227734 0.846357531316971
0.088780772459930 -0.058873872228988 0.817197293504432
0.078216644248308 -0.045188318787081 0.851520718714245
0.046456871835109 -0.100378617522347 0.801219680433146
0.044654613417099 -0.043997801369810 0.776299621660066
0.047797917796195 -0.083349930142208 0.824498511323460
0.044015742271834 -0.027256460144048 0.798090962153256
0.092967566376291 -0.077816547547062 0.772177298302200
0.087964826070293 -0.055875261954024 0.806014422964452
0.046178860784224 -0.121356053679790 0.756746372229190
0.048854534822746 -0.066355082512229 0.730429548596053
0.049015565357991 -0.105929503436541 0.778229946029113
0.050575694529165 -0.055973572262679 0.752340495102740
0.096415428506828 -0.104224971883218 0.729215109976083
0.094083402965622 -0.083142224089501 0.763198387352389
0.044607062733684 -0.142024847978013 0.718173432876426
0.053521503125000 -0.095399214975080 0.692300318381165
0.049045029278389 -0.126487443380792 0.737238631427838
0.056364333860433 -0.085080133230136 0.713290590305909
0.096870223080101 -0.138782649846294 0.689248031261120
0.096643555098425 -0.113746485723527 0.726108270845004
0.037517343353157 -0.175356126719769 0.672141162389232
0.064026411773841 -0.125469625378132 0.644036958159277
0.046916333960127 -0.158210167102007 0.691068959886115
0.065268272260320 -0.115110869443344 0.662992760966637
0.095258750839718 -0.176183741988771 0.643856673973079
0.096666309413188 -0.152317966466369 0.680354011408694
0.033718831397684 -0.195569834722736 0.622292876627517
0.063994905799554 -0.148447982624783 0.596406634642970
0.041668547187453 -0.182400337470771 0.645207346759642
0.065868636103678 -0.140619331458432 0.618688943235465
0.091701201243144 -0.202794913103904 0.595137060567997
0.094708271455647 -0.182498939501410 0.634540240687619
0.028331601516592 -0.212865155996378 0.567192719985350
0.055659533546754 -0.162529986243135 0.551214231748111
0.037720965298086 -0.206654394954061 0.596515446943053
0.060527790018063 -0.155595754680154 0.578515325355732
0.087810213418700 -0.217207729452269 0.539638119973512
0.091300083514953 -0.203629529700525 0.586045836654293
0.029909817450783 -0.220834708881068 0.500442062462627
0.060467987011315 -0.164017184918275 0.502720702880737
0.038648641207647 -0.221990219660242 0.534645881658943
0.066869534231258 -0.167630453413819 0.530723971304180
0.091489994526627 -0.212763928467882 0.477932794166472
0.092052434512047 -0.213258980674965 0.527174006479194
0.022784799710175 -0.212896661970665 0.430000246674597
0.057026251042444 -0.151655174118406 0.444001443303342
0.031376012143065 -0.219804930277058 0.466507502657672
0.060530415515921 -0.158082101150970 0.474006216259962
0.084593103377616 -0.196007709420929 0.407034433473263
0.085447265347175 -0.207949932285622 0.463267930023810
0.021851289360931 -0.191423006718202 0.365435461979027
0.041582780924116 -0.126950697891605 0.379848861771361
0.023412001976074 -0.204834049773035 0.396909346847771
0.044873113183219 -0.140377785655565 0.411081784281206
0.083485726725825 -0.170882861814984 0.339704416090042
0.084259081705777 -0.188554504448165 0.397089922755953
0.019441374049959 -0.158767647813696 0.285376155817906
0.042022989398182 -0.100187831344720 0.313249607958408
0.021167784752093 -0.175531159910253 0.315315291328095
0.040316707512953 -0.115786497558610 0.343182909028914
0.081322608213435 -0.130332047409759 0.273010644354227
0.082932038399929 -0.158236422080579 0.322679229373713
0.022931827590181 -0.115348039416449 0.219872026333410
0.033782135068243 -0.049095643042637 0.257394474821289
0.023764985576882 -0.128365841236663 0.246746038956251
0.037080052098933 -0.063918620500702 0.283902084632052
0.072435297966644 -0.087822903325010 0.196974476076365
0.079974852646713 -0.118878167146514 0.258493974979508
0.011533374503923 -0.079009107018222 0.145510633966489
0.023483473862188 -0.001492741392839 0.180963314976902
0.012913511210884 -0.090469113443133 0.174616611489977
0.028417076057944 -0.016118806511610 0.208202855245870
0.055472831476905 -0.033483849339461 0.128702196684375
0.068542559810295 -0.057949988705220 0.185261546691205
-0.006419196399984 -0.064173877236823 0.080355403975023
-0.000358380457515 0.029180074907460 0.102594245991882
-0.004927621895082 -0.065683830226726 0.108868602426741
0.003063226694450 0.021496993011194 0.130057537022684
0.031031196757813 -0.008676103530274 0.049642913484881
0.049065449817278 -0.022829287312756 0.104101865205911
-0.031233943536789 -0.051708596854569 0.013471137783565
-0.025182462697813 0.046962863616597 0.026827045383395
-0.023935059493635 -0.057002183978753 0.035772408305030
-0.018430557374918 0.046913562601278 0.052620228055003
-0.019150235509789 0.004801160414958 -0.024956232299113
0.019150235509789 -0.004801160414958 0.024956232299113
