ply
format ascii 1.0
element vertex 108
property double x
property double y
property double z
end_header
-0.109635299183516 0.066664144625760 0.982168225522856
-0.112357741212021 0.139758056003883 0.963600345829328
-0.111345398726754 0.072955347000453 0.994010861001132
-0.113872711741223 0.137453964507415 0.976886581691595
-0.085702763574937 0.103010529959928 0.964328979333099
-0.091449831863798 0.107978853791998 0.990771111962656
-0.107268442452962 0.057959011594947 0.944155018286695
-0.107348164423676 0.123498823348007 0.923373145577888
-0.108812264742994 0.066186572058335 0.960283911847593
-0.107687046070620 0.128727319198791 0.940963861687512
-0.078984352671461 0.085378307808408 0.914832518200932
-0.081743745200678 0.099944144572054 0.948905435398811
-0.111515219178657 0.045776482127242 0.898745636853173
-0.117469817676999 0.103325115387225 0.873294840602314
-0.109959754950044 0.056226134345791 0.915304775970309
-0.114198939107101 0.111424361440605 0.892964655091054
-0.075692721080615 0.068545583134629 0.869001496122295
-0.079691980068663 0.087529029418359 0.902202280269118
-0.114139210900470 0.024842758045645 0.853154033772302
-0.111969760954542 0.076772637426774 0.830896924976840
-0.109981773399099 0.036471536173909 0.868539614863392
-0.110020748584782 0.087788189094587 0.850207104797689
-0.064890267505950 0.054015937614832 0.822916882251100
-0.070838791949380 0.069728505328663 0.860497313074809
-0.110479086644986 0.008087730657610 0.810066965999983
-0.105095196222714 0.054094394157440 0.786937471067841
-0.105215158807218 0.016684543042499 0.830775443878607
-0.101260189802901 0.064335756909645 0.806922630240743
-0.057978499187789 0.027870168247837 0.781260001324842
-0.060371929908582 0.045524915019654 0.820314149721478
-0.104264063042310 -0.018046396770804 0.760728430295517
-0.104466784624985 0.034510375694326 0.741707021168590
-0.097925533656431 -0.007800984648658 0.786916971132514
-0.098419303703620 0.040902053060681 0.766212289538209
-0.054418090667104 -0.003676448278058 0.735107054335890
-0.053756271767361 0.013483769189705 0.779236328696792
-0.105504182586762 -0.035718859536113 0.713092148480028
-0.095051240255136 0.013629040336341 0.700563650967983
-0.097792157533997 -0.028810634416650 0.739117955262519
-0.088644124665880 0.018531308821247 0.725039308319908
-0.050989033583883 -0.025344373747095 0.684453991914305
-0.048490825415865 -0.014535846117519 0.728782191573562
-0.099475430001375 -0.053580377260546 0.652077001464870
-0.091710510053755 0.001719337168416 0.648487994268976
-0.095511096829069 -0.048442739147815 0.679180193737306
-0.085964707192999 0.001555337685802 0.672362826355896
-0.045783821610261 -0.033955612012399 0.629827738323668
-0.044099789886019 -0.031320990694491 0.675601309966266
-0.098761728549262 -0.051308427637985 0.589705821690696
-0.086034811910104 -0.001834491126115 0.597114397083502
-0.091690263204049 -0.055813098611802 0.615575980816077
-0.083589245551320 -0.008305131206321 0.620704507846440
-0.041028089700097 -0.036649708451316 0.574468042602455
-0.040500406179651 -0.042967231730626 0.622218212947536
-0.095057567395669 -0.034277536922714 0.527307308669420
-0.085260622994496 0.011847570647892 0.555674916705955
-0.088046336428330 -0.045902265681037 0.554808351538566
-0.083407276989593 -0.003823997195286 0.577097349122315
-0.036645912166997 -0.003971799198135 0.520863748750695
-0.037235095493422 -0.030623992893385 0.567407459938959
-0.093637250888839 -0.007353276184549 0.471725403772691
-0.091961317904480 0.048124104350577 0.504089739941061
-0.086117317822654 -0.018101569436251 0.496833775177908
-0.085630634172861 0.025153547188622 0.531176228562490
-0.036860781859495 0.038296283503603 0.474462524767232
-0.036566949453146 0.004930993702926 0.518642163166776
-0.084376088747994 0.032543647331073 0.416657768858477
-0.098206205610471 0.083966090041461 0.448022163737024
-0.080073886271230 0.017723459518004 0.444558433923682
-0.089695948508073 0.065126649476260 0.475357182438586
-0.036116710132823 0.078625224174813 0.423973208742638
-0.036962775364885 0.045755729106294 0.468011119194245
-0.075603634941911 0.068541027593445 0.361922182279431
-0.099151480406090 0.123493255464338 0.388387851871770
-0.075069877366554 0.053992147566428 0.395989784679263
-0.096297180768879 0.107995810528626 0.428193411478096
-0.035230910458214 0.119220157834026 0.363794003534689
-0.035202058697384 0.091194468471890 0.416886558260147
-0.051022947057139 0.086178564543012 0.299922026026107
-0.094773858414173 0.147583716500620 0.303316157293587
-0.059028298345011 0.078722155967777 0.332002400127359
-0.097552991621853 0.141537754092983 0.341971948922271
-0.023991124929914 0.134998274723778 0.289135516845586
-0.030287895188276 0.122993158276616 0.348099911071214
-0.035136256435842 0.078052997585015 0.233799358087155
-0.070832970980090 0.140820256356550 0.219945957347516
-0.046724287779074 0.085857651975182 0.267663226561826
-0.084886562446190 0.145908289687503 0.260265533850737
-0.011195875173001 0.112963122018211 0.209004812852370
-0.024643073490427 0.122474838924160 0.275429411937553
-0.033695186908064 0.047553649360129 0.163860665149988
-0.051039650708146 0.108465537441790 0.136875410777085
-0.042705035026942 0.061805659953341 0.195724651045014
-0.056485547107641 0.122270345742136 0.172375730879191
0.003546362268702 0.081107741034309 0.135160502607043
-0.001938003145233 0.109299454564029 0.197110041736102
-0.008308168233777 -0.000123126154771 0.100566735200493
-0.039576643661845 0.075126315460108 0.064716650769727
-0.015665620331077 0.015322689314193 0.130808695348500
-0.049815475557837 0.088541878074868 0.094337032631780
0.010493815659469 0.032415332921065 0.057906116700092
0.007103733761930 0.062991113003589 0.118023822102061
-0.026738622434930 -0.048072474883828 0.036098994139331
-0.036642875139541 0.053219730250169 -0.002366983273365
-0.030425320680651 -0.033592434145810 0.062692978141678
-0.037524878529830 0.064501274905986 0.016017156259086
-0.010948863606596 -0.018032983232875 -0.029341101878930
0.010948863606596 0.018032983232875 0.029341101878930
