ply
format ascii 1.0
element vertex 108
property double x
property double y
property double z
end_header
-0.151223799435029 -0.002148452648423 0.920202883409842
-0.152760097648715 0.075577922795782 0.904957004122734
-0.146853384320096 0.002266125341719 0.932573332138250
-0.148152627616536 0.073483177902048 0.921463092423034
-0.131892141886747 0.029542256757247 0.893463829541198
-0.126511394155767 0.035737310922707 0.921736332405772
-0.166509567770713 -0.020598562223199 0.887448561016100
-0.161841979243897 0.057922460052973 0.869063698527922
-0.165540833733894 -0.013884095660939 0.903154019127147
-0.159379970181498 0.060712414079013 0.888569443281056
-0.150673045642920 0.008982586356408 0.855755002392676
-0.138537087535777 0.019137768280031 0.880960607265390
-0.196930950666373 -0.028239024555949 0.849990180108274
-0.197867203620782 0.038063127376400 0.827942648195591
-0.182693979386434 -0.019619571002460 0.864304935032934
-0.186238406274091 0.043027604393324 0.848427669091239
-0.169602393644147 -0.002843661780728 0.812016945552056
-0.156564943039211 0.008471151769322 0.843053189639320
-0.224699426910026 -0.048108899338217 0.806565537220742
-0.220515635558068 0.011499585321485 0.786205312062778
-0.209727072527431 -0.032374094284290 0.827024345313041
-0.206839105410607 0.021521708775933 0.805066278837876
-0.190802853118164 -0.034075932049561 0.766795870869775
-0.174442359845162 -0.010540538625034 0.800167333829325
-0.245457687788412 -0.067163043077128 0.772841056181303
-0.243654132949275 -0.012416178673382 0.740189875470305
-0.231570885370606 -0.055829139768117 0.790158316776552
-0.230842055468787 -0.003379314718734 0.761975279349496
-0.212269144608755 -0.055994964241478 0.725228063193405
-0.195655925720853 -0.036816879530209 0.759157687911229
-0.270963030368989 -0.095511050212219 0.727737369270543
-0.265786571551067 -0.036955066591344 0.696723918925321
-0.256876782708309 -0.081653879659069 0.748227803679927
-0.253613003769554 -0.024599148873488 0.718574569891109
-0.230505847773656 -0.078903244838053 0.680049156933903
-0.215841208908639 -0.059157026106367 0.721193570851828
-0.292020744033464 -0.114760365367372 0.678016240065461
-0.280962929924946 -0.067041951322526 0.649451692380963
-0.279988497452615 -0.107705702205122 0.699684256173131
-0.269654099732181 -0.058040132746269 0.671704083050256
-0.245817543990913 -0.107452121824896 0.634494723774247
-0.234901051083061 -0.085237625751749 0.672547736427615
-0.309396413592697 -0.136421543352429 0.611001783694274
-0.286372739677031 -0.082402084241624 0.594792583884082
-0.296602001262293 -0.129029532807946 0.638694470745635
-0.279243711931367 -0.074184370391640 0.619514106660162
-0.255719715377861 -0.126854155051735 0.580749074489731
-0.247771537527533 -0.111282895096965 0.625893220292617
-0.311102810106377 -0.153082059255069 0.550107731983357
-0.293007428142142 -0.100398883271524 0.543012894850758
-0.304292609827537 -0.149059533628065 0.581434311359893
-0.290063901279088 -0.094820399828322 0.569863922977187
-0.254386281468356 -0.143215218168288 0.528298109753247
-0.253991094965689 -0.131292951392797 0.576118525793734
-0.301863366769324 -0.158765393911669 0.475009759918465
-0.280673734322777 -0.099299939983285 0.486402926956787
-0.302434350007497 -0.159800514722188 0.506446888943907
-0.283427503283324 -0.103689444857179 0.515662398851815
-0.239556672895304 -0.147054539093624 0.475150226353803
-0.251819991036112 -0.145147557649968 0.522646401413732
-0.272486222181000 -0.151814157353938 0.408476251504381
-0.257542644897734 -0.092204533007134 0.437307770892555
-0.283872836018486 -0.157450479917574 0.442234923156884
-0.266964153249354 -0.101275587574846 0.462779207781844
-0.212428985724830 -0.131792704187085 0.422117451351676
-0.237295533684658 -0.143758563994234 0.472363406467294
-0.229912640636992 -0.128679363945813 0.355178499251006
-0.227969759049618 -0.069858687995466 0.389186192535327
-0.246209311432274 -0.143915270970778 0.378644941605854
-0.247721106373263 -0.085224234428299 0.418857661317779
-0.173461944015545 -0.100691497934999 0.379057508336829
-0.206749070129538 -0.124067050243451 0.417052681869764
-0.180728873900569 -0.098059675494381 0.301130547962648
-0.192698152769023 -0.030440330193733 0.341780337678243
-0.194243568479526 -0.111022761515902 0.326325040886116
-0.210873882673960 -0.047526519229023 0.373324882213062
-0.130700314099684 -0.059571017446219 0.331302909226490
-0.162515534321262 -0.089055292622144 0.375106498075484
-0.147728948936316 -0.055559888690236 0.261182805501971
-0.147267945503500 0.008820465866128 0.289126223715802
-0.153710026848349 -0.072406173590525 0.285451017733175
-0.161708350931171 -0.007357107626980 0.316710925414235
-0.088461515641929 -0.015142025299926 0.280536402026970
-0.120989325224120 -0.050129849492088 0.332268224202003
-0.097869347748323 -0.034246885114882 0.214749673586564
-0.102433509670620 0.040261298874653 0.226718097689692
-0.102093882914182 -0.040307456202290 0.243105943453146
-0.118011607748003 0.033887028912382 0.262270636840964
-0.039874090181701 0.012493392474552 0.215248001771975
-0.068503884952796 -0.002242476834349 0.276530116941170
-0.052752554435888 -0.023536675572517 0.155921019826501
-0.054308227330310 0.057214714362544 0.156297401491983
-0.064840075841190 -0.023468009424613 0.185745206680640
-0.068950927218611 0.055959349019536 0.186852982543921
-0.010475861381987 0.018124586446228 0.141616807007536
-0.026873394485809 0.014275008336973 0.207098954069895
-0.030865433482832 -0.036350747505434 0.089853643437194
-0.041625789257691 0.048681022263491 0.081403718340149
-0.039326755450898 -0.032567556169878 0.119271531839419
-0.047508284235389 0.059319146596646 0.110446364763994
0.005814826056008 0.008313590027451 0.056465085171111
0.003955711470642 0.017329654692485 0.124366787951314
-0.036835684367394 -0.060709849783033 0.012595964313744
-0.043820256772862 0.061124695888212 0.012125273540560
-0.038028651841560 -0.050893724772297 0.037950583275063
-0.043866414100499 0.054665804158607 0.033079275678740
-0.008458330289423 -0.003658253136983 -0.031480294674436
0.008458330289423 0.003658253136983 0.031480294674436
