ply
format ascii 1.0
element vertex 108
property double x
property double y
property double z
end_header
-0.098880610905527 -0.119155791375738 1.002351555995125
-0.099596038497949 -0.031509081126799 1.004734082552440
-0.098740257457969 -0.113627097652349 1.020412419765018
-0.099295778546206 -0.040394740037689 1.021852917553129
-0.074083585203097 -0.076324419062400 0.982829837830224
-0.073681542216866 -0.079361035541352 1.013927769067705
-0.102784793828453 -0.105086965358540 0.964571032843259
-0.106070243041722 -0.029230212554608 0.966145455676750
-0.103275495194726 -0.102738455762752 0.980111159409005
-0.105080001256180 -0.031065789226590 0.984188641340653
-0.079663973994003 -0.062060598179128 0.938753498295032
-0.075737559513544 -0.063303422600257 0.974677552467836
-0.118541878967715 -0.099038642459076 0.920286841637636
-0.122228299766852 -0.035119432500160 0.921545201364029
-0.111729915459492 -0.097722694963170 0.941635029571433
-0.115948018688790 -0.035601830513620 0.944985834206848
-0.088447314170222 -0.057449558866686 0.892643640870785
-0.081886058346952 -0.059174245601093 0.929863285932598
-0.131257526326390 -0.100988858969904 0.870436993396100
-0.138307340715208 -0.039221556640158 0.869524160286787
-0.123924326541548 -0.095576947886087 0.891947230634807
-0.128623488533851 -0.036098960282071 0.892890866504556
-0.097512432641922 -0.065717555468282 0.838553725692508
-0.089778261271212 -0.057938920982505 0.878967215236551
-0.144350038762766 -0.104122972881893 0.823772150583797
-0.147233444989803 -0.048970228543479 0.814549536258729
-0.137633162036764 -0.099434792743311 0.846079777542698
-0.140711295279784 -0.045325592358500 0.835650230708664
-0.106603264722336 -0.077488495556845 0.792074235143012
-0.100126381677655 -0.069319871338921 0.831612122740358
-0.157106399335237 -0.116861119648192 0.773310532734963
-0.161079955431670 -0.066288344011693 0.757500413277730
-0.149183393650540 -0.106544069852277 0.797719443655881
-0.153271053885637 -0.059646733161194 0.781807273314069
-0.112768102411280 -0.095777031903885 0.741792612555169
-0.107914123066518 -0.079472729029199 0.782610823586351
-0.165388324141553 -0.134812164880873 0.726190880468549
-0.166531240478829 -0.083990020809876 0.704197977366291
-0.159006527879092 -0.122654984961434 0.749322682156720
-0.160219888790238 -0.075281410808978 0.730471124918902
-0.115699989504745 -0.118423757077689 0.692175793892595
-0.113755397845824 -0.101391973356498 0.732657049509599
-0.169180813576632 -0.153647651113246 0.672988084790872
-0.163117223221995 -0.101184657386250 0.647985082368646
-0.163294272131987 -0.140786025455106 0.697100217811227
-0.159289109724845 -0.092082843452115 0.675094190054522
-0.113791825458167 -0.139416775791138 0.641582125949015
-0.115370533893110 -0.121114579089470 0.684823576751308
-0.170517653379618 -0.176462586144048 0.613404296401006
-0.154086389561912 -0.115559100357005 0.592471543957978
-0.166798019169226 -0.164440402670352 0.636978586439114
-0.151608776222377 -0.109337210598728 0.617530259199081
-0.107862695849092 -0.160621396076288 0.590466150328454
-0.112458199856270 -0.143987637589967 0.635759064975881
-0.159146077776379 -0.192956259032901 0.548281903834394
-0.136946394404054 -0.128417779664147 0.536759528630056
-0.157851558287733 -0.184750939352543 0.576792671045219
-0.137563788863257 -0.122956584163630 0.564960661135962
-0.097469040927219 -0.181832712613706 0.535127518027052
-0.106085242646805 -0.169000818315641 0.579940445311836
-0.145761340890983 -0.200776410282746 0.487078158095608
-0.124490561633416 -0.140495943806812 0.482719165718571
-0.145889908934548 -0.196370008439644 0.519360790284523
-0.125633745820782 -0.140569334731681 0.512942834259810
-0.083844846060684 -0.187748449718244 0.470779212222738
-0.094790004319432 -0.182601710224280 0.521290650188453
-0.134966446533152 -0.209291096817933 0.413663126719049
-0.109888981785695 -0.141319850685992 0.421428100850197
-0.134487798420962 -0.208880214778707 0.451172317728975
-0.114463861335885 -0.146081153899351 0.452667724785691
-0.070232436598142 -0.196099479847976 0.405101030717798
-0.080999474546535 -0.194999151675132 0.457762233511957
-0.128167607679377 -0.198274154734861 0.341679486227514
-0.100887879485687 -0.135274741987617 0.360078376811948
-0.133013551521416 -0.208802002552205 0.375737428817991
-0.114446986780167 -0.145015378388215 0.391938609407734
-0.058305607756756 -0.182098687753832 0.340072117832861
-0.068471590101482 -0.191369247245145 0.394251762791541
-0.108686067028090 -0.166830161180117 0.261683913821150
-0.090962158672373 -0.103491382367879 0.303988157155872
-0.116748086909891 -0.183497936627965 0.298622584137756
-0.099591752896497 -0.117503692015927 0.334880647373740
-0.041190254807248 -0.142748027369927 0.273377713083574
-0.055035425998661 -0.168456546931215 0.328780629406759
-0.068529177870996 -0.123725849624294 0.202309852052350
-0.085473106762417 -0.063174051006420 0.243521267016768
-0.079260591757317 -0.142450981619274 0.232885475612849
-0.093307454067073 -0.082712911577130 0.272881654715486
-0.022321555163621 -0.093421826055827 0.208007559183009
-0.036811709373585 -0.130856286890431 0.264749725959996
-0.057096800297154 -0.087762421488148 0.141165569033714
-0.058915234563327 -0.013853206694136 0.178057365584436
-0.067814821678937 -0.098686419589726 0.168999211215096
-0.067200641420823 -0.028520677664183 0.206566525694717
-0.007702029359820 -0.041694348678059 0.143680413535865
-0.018487548964475 -0.066656102186307 0.198019429298548
-0.041956841767005 -0.059900655047235 0.069415761671413
-0.049578783949687 0.022888593805761 0.097499040137384
-0.051740602032215 -0.066394680497725 0.099620680706299
-0.058125076795584 0.010946765359293 0.126757376951522
0.000165531356090 -0.005911719353176 0.061459006875280
-0.003193576632138 -0.023828479774240 0.121504836671708
-0.035033184770935 -0.050492956309453 -0.002079320254574
-0.055758085543533 0.041317483600359 0.010836411121900
-0.042680572712240 -0.050958479767194 0.026585728608529
-0.052625310881997 0.036784388664328 0.040387240235148
-0.004229620783200 0.004588004204637 -0.032340755658610
0.004229620783200 -0.004588004204637 0.032340755658610
