ply
format ascii 1.0
element vertex 108
property double x
property double y
property double z
end_header
-0.130522447547944 -0.023509774034290 0.984617973225790
-0.125844759416134 0.061896464911542 0.983303237658729
-0.126681137528437 -0.012898211162917 0.998204321518936
-0.121230104844770 0.055686538057462 1.001272286986585
-0.108059080445936 0.018124764645160 0.967525165131466
-0.103364450487604 0.017542513930697 0.996889585951876
-0.144880894670410 -0.022472087159777 0.947802885903023
-0.137680867542785 0.061788336195206 0.942981690534786
-0.139044186288844 -0.014970346033344 0.965290089753013
-0.131525752480396 0.059450613279586 0.965041941823358
-0.120514810963202 0.019853080094979 0.919753200649674
-0.111690112500955 0.016176703739561 0.953938567693812
-0.160812938503423 -0.014551534115923 0.902160110383916
-0.153916369386160 0.054815030569576 0.898984265344440
-0.150184932094543 -0.012581797638156 0.924349667671977
-0.145518704610087 0.053904656538490 0.917561725560065
-0.136539785697582 0.016079537381563 0.874172711257489
-0.125171321811858 0.019431029298959 0.908358078301627
-0.180210084149336 -0.021378342771034 0.855326673262577
-0.176360801505584 0.046088993332372 0.847437761571200
-0.168491572230313 -0.012672735383461 0.876363937202589
-0.165946810228806 0.052988303039220 0.870666500600820
-0.154208117604660 0.006661874991023 0.827715482342756
-0.142203089501798 0.016171969993915 0.866722044755131
-0.194649254092293 -0.030189089140851 0.807503385012201
-0.194670929664462 0.029310605606749 0.791454243260576
-0.185555230417237 -0.022390616905764 0.825754964211773
-0.185485968244100 0.035558402425997 0.810177702157705
-0.166628967890851 -0.011336324244232 0.783197345131346
-0.156330330521132 0.002087830974411 0.815881865661182
-0.201422994967267 -0.049207535135081 0.761627161089393
-0.201060240564076 0.009179978530208 0.744159639655510
-0.198281282725343 -0.040033785217566 0.781258253428023
-0.195290053766062 0.019113120907151 0.767671905134877
-0.167126011183685 -0.031559383933125 0.732006121426066
-0.167583440499797 -0.017110497354369 0.772095715013354
-0.202857569042524 -0.071941473172436 0.709539515445459
-0.202648038511560 -0.014319082290252 0.692014441630300
-0.201175096182119 -0.059801408746408 0.729103587911522
-0.195569095614671 -0.004745206293392 0.716393480851907
-0.161648070893187 -0.054618455553011 0.686448304184081
-0.166320526990335 -0.037335051910308 0.723453987055228
-0.210348098666112 -0.101117789889543 0.655911658455008
-0.192216607119245 -0.041079444716325 0.637724109393911
-0.208503681875710 -0.083345315578252 0.679140397484628
-0.193109790179300 -0.027955508629444 0.659927369629895
-0.156172123758751 -0.084776899919417 0.637107227592880
-0.161058345843494 -0.063261029380140 0.677196821180167
-0.211179743032768 -0.126706176551460 0.601127272659877
-0.185558469295837 -0.073047425642056 0.579748431599828
-0.215017565029167 -0.111171767352714 0.623041026977930
-0.187729265391307 -0.058526287156070 0.609353027725647
-0.146998872130251 -0.117557590229220 0.584682489430046
-0.154124405050078 -0.092640149726503 0.624772083017334
-0.210049872690411 -0.142453853448785 0.540275719813572
-0.174214421571867 -0.085891074157790 0.535341412838845
-0.212205720115420 -0.136660745356064 0.572201097028488
-0.174457337466861 -0.078653177064996 0.557544922219336
-0.136678060899348 -0.130578629634427 0.527497098014344
-0.143306550526341 -0.121727521854365 0.571113830396945
-0.187180649185382 -0.153128948169618 0.479833013104379
-0.157010744171623 -0.084075558130280 0.478599498646824
-0.196758262349857 -0.152115428312350 0.511904638145307
-0.165022484105290 -0.088577101095155 0.509437360085690
-0.120255700675209 -0.128713035560872 0.469964897443942
-0.134912622917883 -0.131419741492376 0.516221814174494
-0.167719473400994 -0.146440414716272 0.410755456047796
-0.143434610803292 -0.076754945060935 0.421737745946606
-0.176668993261592 -0.154088154524210 0.441593566631169
-0.152518668698040 -0.083979637494821 0.453928960351224
-0.115104388834288 -0.115055930227543 0.408288427132686
-0.099358455948516 -0.125090225274607 0.456395989266333
-0.137103101429461 -0.123997228319387 0.341230435455408
-0.118054508949801 -0.052249589573930 0.358761239594244
-0.146615189588414 -0.135042053489626 0.370156361942290
-0.127311223988376 -0.063968599781969 0.390755380693282
-0.066831145603030 -0.092580853333673 0.340444882822674
-0.088570498765702 -0.111363110334617 0.389169077612843
-0.097260160904783 -0.089771250720496 0.272863438534746
-0.089970690898898 -0.026058024058905 0.296087942107736
-0.107482809199657 -0.109362978226912 0.300908888331465
-0.097801053630970 -0.039555427762808 0.324575872550105
-0.039779782391980 -0.054741532939808 0.276918265397340
-0.060475718356461 -0.081322013031332 0.326259341988541
-0.058543104410339 -0.058083557365912 0.207556434457487
-0.065903829745422 0.013939136916031 0.231223169531620
-0.073797973471461 -0.070157598497403 0.236044115755349
-0.074120366464407 0.000691874297845 0.258396364406929
-0.007684986911836 -0.016436810605585 0.211500890303176
-0.031403793188075 -0.042992874535355 0.259032430335052
-0.033360325006936 -0.035834952829529 0.143568401403919
-0.031888877544540 0.043128160003029 0.156716504508046
-0.041426876732293 -0.039776418941126 0.171179592323740
-0.038138667519850 0.035483409929184 0.181698224293746
0.017795520178252 0.004388182213878 0.133212709941940
0.001929499639776 -0.009623455753889 0.188104726164391
-0.021014965506574 -0.034822180405785 0.076950398927215
-0.021029415888020 0.050107943385859 0.076950398927215
-0.023093827278708 -0.030942751276602 0.104123344658016
-0.021862555121723 0.050618938771124 0.104123344658016
0.017781069796806 0.002812094058255 0.050003427264885
0.023901055483612 0.005138605471029 0.111786531425430
-0.040360787383904 -0.058842700680832 0.011647381162079
-0.038419951669028 0.050483404158943 0.011094031210507
-0.026710907241297 -0.047972276665973 0.037067346136799
-0.024940984658694 0.047310797998066 0.035752610569739
-0.013444460496019 -0.002864165260361 -0.028673667672849
0.013444460496019 0.002864165260361 0.028673667672849
