ply
format ascii 1.0
element vertex 108
property double x
property double y
property double z
end_header
-0.085800571135948 -0.059850887776605 0.973855984542025
-0.088188630242541 0.010148625532535 0.967490162760920
-0.080973898747586 -0.059541556288893 0.991453592599044
-0.083630495626279 0.012170792539585 0.987561671915055
-0.065520088039872 -0.025096644220292 0.952702315717286
-0.060730705612408 -0.023675120878703 0.984039397353517
-0.092564069077226 -0.062807055683446 0.931441031569152
-0.098329747729258 0.002269431982664 0.920370668278330
-0.090077654570414 -0.055593325261267 0.947712218198280
-0.094209332184199 0.002549231823491 0.939771458672700
-0.073707612004679 -0.032684525592414 0.900321182725262
-0.067004178429948 -0.025986347649755 0.934535597787243
-0.108451094028653 -0.072195116174592 0.884321537086561
-0.115446590585715 -0.011050091567113 0.869571480540212
-0.100797392121524 -0.063998082018415 0.906480533246365
-0.108068433960116 -0.003998534934609 0.893719858573659
-0.081240934910522 -0.042308088454059 0.856624105794826
-0.075759060390420 -0.032826928194767 0.893939093511552
-0.122854529126393 -0.078160008309001 0.835781019798769
-0.123882130330718 -0.028351632350700 0.818545299550190
-0.119161821924781 -0.068399799013464 0.858108696721289
-0.118933076795518 -0.018893997301638 0.843817882310823
-0.082515550822268 -0.046024571134095 0.808811118146822
-0.082994814413666 -0.031939977715437 0.848080450190040
-0.121504832756465 -0.095800662495379 0.793780761223258
-0.126646592800999 -0.042922246601992 0.773905962869562
-0.117647949619627 -0.087019502374542 0.814699678482080
-0.121113663569333 -0.035612663461534 0.797633139532605
-0.084568250548979 -0.072233407208265 0.763640962626844
-0.082903466522878 -0.054064436864476 0.804430924216452
-0.126368544837530 -0.108514537015817 0.745055546008337
-0.126750454101485 -0.066939734370007 0.725505345502183
-0.122999434410685 -0.095298374230137 0.768192590270064
-0.122981665368915 -0.057971874176490 0.748514252448612
-0.083249337166905 -0.090650643600444 0.717261260925545
-0.084444117524783 -0.071390754199263 0.757971386961286
-0.130798291870300 -0.129188942249157 0.699863366887292
-0.119319240618771 -0.076786786728842 0.676985350206294
-0.128401223108725 -0.116317148498341 0.723707919333293
-0.118759390668923 -0.067039341111196 0.701430796585950
-0.077228384957053 -0.123616220374655 0.676758857490777
-0.082240005540738 -0.103963660177179 0.714497549259846
-0.123736474241844 -0.155200316718307 0.638836468867354
-0.104006831440634 -0.098362908264955 0.630502037472703
-0.123673156388776 -0.143278541031694 0.667463145963195
-0.106885165939159 -0.093153325539862 0.655491316637794
-0.065472286814830 -0.147782867986259 0.625742687228512
-0.076833211478819 -0.132616365165191 0.668097325566644
-0.110210479432064 -0.163216907506651 0.580535742284024
-0.084690631695816 -0.117460874144656 0.580703171705771
-0.109880125416061 -0.159443864214784 0.606044828487933
-0.089891204765927 -0.118134846390941 0.600722625075566
-0.051084618613308 -0.158291379181682 0.568698807515158
-0.062596955534632 -0.152804749565896 0.618798745919402
-0.094711119913053 -0.159600031567804 0.516465583025754
-0.075180440326027 -0.109450540061160 0.535208918874639
-0.098120273250928 -0.163613832862243 0.546049535963423
-0.081428135519591 -0.116680537915945 0.557971812186423
-0.031818472507279 -0.143913471439724 0.514100548593003
-0.047615150640693 -0.155701603910772 0.558177282373650
-0.063935389835833 -0.139831597196533 0.452510547136696
-0.063584513827926 -0.089668340939222 0.481038118027737
-0.068519552344265 -0.152413830646959 0.482552741137473
-0.065828168186615 -0.106922581034153 0.504310557382387
-0.012806849154488 -0.108512785138460 0.462453201945617
-0.025723691180213 -0.132456944325650 0.497641410550225
-0.044811896600350 -0.103290689003669 0.393330378119855
-0.053745470051298 -0.055242449253361 0.425539394143780
-0.050089302006001 -0.120525408179473 0.427920195472749
-0.059366493687231 -0.076234945361201 0.457053415393128
0.006593941239882 -0.074875738799903 0.405339247137960
-0.009164696128053 -0.103037167323206 0.449460028120740
-0.024931592346388 -0.072449889196025 0.338135479823344
-0.036988763125923 -0.016185344638606 0.368594870903421
-0.032594804444886 -0.087993045648976 0.368073061719052
-0.044246040213848 -0.035451490744635 0.398825016317848
0.024435811054189 -0.031474979411093 0.348320394244000
0.010794692875196 -0.063442736896058 0.394926588660816
-0.003032624840090 -0.033811733537928 0.273836825704004
-0.024104956501798 0.025797895699717 0.301462430024078
-0.012187935910870 -0.049013524174343 0.299810910212256
-0.028998951034330 0.008225814998480 0.334016565887449
0.038383507770761 0.010479480084926 0.286533181450867
0.028894338929262 -0.016855062325594 0.332033190450460
0.014367021075521 -0.013257206769486 0.221267491030136
-0.009506061944589 0.050459323530744 0.235097311427361
0.007066197321850 -0.023098502959861 0.248696134281578
-0.009272561719642 0.040666579369995 0.268203538926568
0.049109251758525 0.033384025194482 0.205059872522270
0.042116508151597 0.017524780012582 0.263186162174422
0.021958155934165 -0.012038150396796 0.151159361324825
-0.013446534658203 0.059155392465641 0.153896794830161
0.021820007891109 -0.010959494480906 0.184059868368611
-0.010113713119480 0.058143057621146 0.188037631043123
0.040249507424791 0.036463575320936 0.119825282906921
0.049527449910602 0.044479665572892 0.182721934603798
0.000098981070704 -0.024046268610318 0.074672896428713
-0.011860084576806 0.045802583246069 0.064445936951474
-0.000546210333278 -0.015996392152180 0.103563606469163
-0.012604632453783 0.050838229576372 0.092169396135380
0.024307673738891 0.017097822473718 0.045137745788862
0.035352759942125 0.031066291450386 0.100671507219971
-0.024291156038090 -0.046249311972255 0.013542387376483
-0.039404101465655 0.044580523655051 0.007939883586901
-0.014250396097144 -0.043251349277026 0.040607891478515
-0.027365700800666 0.050849992181488 0.033364128873063
-0.019291047791327 -0.004639972315681 -0.025594302523945
0.019291047791327 0.004639972315681 0.025594302523945
