ply
format ascii 1.0
element vertex 108
property double x
property double y
property double z
end_header
-0.213302995346656 -0.081795442804093 0.978749944160547
-0.207866176370329 0.013782295599725 0.976225200462888
-0.209136016377092 -0.074552342239198 0.995413809512462
-0.202056202655172 0.006280973980823 0.993393862659598
-0.183728330452288 -0.033434943072823 0.957036338255418
-0.180068426748584 -0.031183863060833 0.986829225256211
-0.217633767474986 -0.082546309123882 0.934817935505496
-0.212247580077876 0.007224240301637 0.933808088658012
-0.213510584821446 -0.076920634357076 0.952491647704896
-0.209176521640466 0.002388924486408 0.952996697707586
-0.189969432064478 -0.035501724136464 0.909064689052535
-0.185838907831951 -0.035376664135797 0.944412113451335
-0.225669758570420 -0.076934051725568 0.884826339449749
-0.221081018545979 0.000028480263310 0.881796545749401
-0.221385061179177 -0.072382779069748 0.905529845349497
-0.218007681687504 0.001709448693316 0.904014948499323
-0.194921200511905 -0.037268006777450 0.861093039849653
-0.192020264180664 -0.035025280976031 0.898460157943420
-0.237897791267130 -0.080780785956584 0.834834490236106
-0.232225029131652 -0.010539089792977 0.828270105990615
-0.232544514396511 -0.078342115943594 0.855538249293750
-0.228903091219221 -0.004466085023788 0.848468815045569
-0.200611683700110 -0.046084483666515 0.809081243783145
-0.196252051571626 -0.038656830995374 0.852003405590712
-0.242501467607440 -0.093071601811523 0.789892634733571
-0.239022318641541 -0.027667499884209 0.770704025683997
-0.238279047058635 -0.082442514386487 0.807566600090867
-0.235362921253628 -0.020454525108948 0.790397684736261
-0.203683501611208 -0.061329399010873 0.761614644582952
-0.202762513185250 -0.048590493679863 0.797467118984442
-0.244181423405862 -0.111830601911440 0.747475522928695
-0.235214823884419 -0.055478666874447 0.720712429628250
-0.244763180251066 -0.100329385534391 0.764139388280611
-0.236712505997659 -0.044581991553249 0.738386141827650
-0.202116960550233 -0.095310023928708 0.717682635927902
-0.203922735823009 -0.068909452735458 0.751010366631733
-0.244955833409987 -0.140597439959399 0.700876748996282
-0.234437375985541 -0.087730982835708 0.675265524123025
-0.247068689210714 -0.130692890432960 0.719197532778076
-0.234294341774253 -0.078422873312446 0.692434186319735
-0.198795275795698 -0.126434268305014 0.672740527267471
-0.200708896332206 -0.101175692381004 0.709639556411377
-0.242977910767873 -0.167750902735608 0.647492330817201
-0.228899800166572 -0.112570835599593 0.631333262310079
-0.244990769199647 -0.160770580066849 0.667690786714259
-0.230887089650841 -0.104492820293409 0.650017074514859
-0.190603339436275 -0.150644264223439 0.626788824917453
-0.197120889470990 -0.133335858868090 0.666680939866775
-0.235459880727829 -0.185759036515736 0.593460841055725
-0.217201373788472 -0.118398783525372 0.586391406807544
-0.239126113378936 -0.182149511233352 0.612649703263195
-0.223093876977753 -0.119308126688110 0.606590115862498
-0.177910002526561 -0.162270793759050 0.577572904655311
-0.188262894686967 -0.154079363715420 0.617173634866238
-0.208752735322419 -0.180178677012329 0.528320529656133
-0.200350424751350 -0.114655844031751 0.539429604452146
-0.218532731163985 -0.185010448617012 0.553415565579272
-0.209388414799489 -0.121166558803272 0.562658107207448
-0.152064859757321 -0.150608315802195 0.526300582803268
-0.171079549332285 -0.158788100582605 0.564714508797349
-0.177879623579030 -0.162000674283927 0.468229452493960
-0.175432093039678 -0.098700820788874 0.497517542649959
-0.192554427341404 -0.170981956963344 0.491904525777957
-0.188433016793136 -0.109093458738966 0.519736198557778
-0.126145794882425 -0.123121444076842 0.476813783592315
-0.148271288684484 -0.148524066843725 0.514181408001875
-0.140146186009627 -0.126815017780726 0.410663372187343
-0.146850566571653 -0.064338686921639 0.445001202896554
-0.155516667670444 -0.138477242579685 0.435298926529087
-0.161281579280097 -0.083029334389613 0.469239552499341
-0.091898847857908 -0.085056116505671 0.427327237539258
-0.119484704320629 -0.113397902446104 0.460654968243090
-0.104309660555591 -0.095296353402320 0.356632135583763
-0.114962291664963 -0.024356954077102 0.385415175737072
-0.118431314315019 -0.102073390280522 0.381701096243605
-0.128289535946475 -0.040732725743273 0.409702891129595
-0.056966349250792 -0.051877242644738 0.364711416679428
-0.085709643614415 -0.076206729090115 0.409148475337168
-0.074220072500586 -0.067950996940879 0.293511264721242
-0.083284897285711 0.003504844492352 0.320740674866276
-0.085830653088744 -0.074148555394942 0.322799354877242
-0.094519032082390 -0.007497397671513 0.346375949739661
-0.026090959086338 -0.023495710914620 0.297046108424281
-0.049888054476248 -0.044993373134388 0.358651829278731
-0.046538016037352 -0.041318786272710 0.232410593869482
-0.055148169241108 0.028197359360716 0.252103999763850
-0.055997007666681 -0.048781121575615 0.256648690314373
-0.064503366133042 0.020982106164390 0.277857246216811
0.002405253170706 -0.002319052907089 0.226350753310890
-0.018392680624282 -0.017011830880085 0.284421883620198
-0.027757750674164 -0.027068275144175 0.165754879303923
-0.039335673893727 0.043476197863149 0.171814466704620
-0.032264467540273 -0.028207485676559 0.192517972604368
-0.043257342861983 0.040942846797024 0.198577813162961
0.018862035363624 0.010710730846523 0.145186053404893
0.008612431624820 0.005736937662136 0.208172244266696
-0.021631835904693 -0.030912477796230 0.089504986792526
-0.033569749652489 0.042967856807810 0.089000189947732
-0.020263264318456 -0.026852584616711 0.120307973798699
-0.031507525430978 0.037920900991454 0.120307973798699
0.016547412719716 0.004525070813576 0.053879848181720
0.020090863791222 0.009281148207330 0.120813023801389
-0.038516708099891 -0.048634036837990 0.013760397441714
-0.050529050269136 0.047042686303198 0.014769991131302
-0.030722989111010 -0.038251778361638 0.036988647039120
-0.041829279170166 0.034862247290952 0.037998493886604
-0.010912624268651 -0.000566947108283 -0.026637020668194
0.010912624268651 0.000566947108283 0.026637020668194
