ply
format ascii 1.0
element vertex 108
property double x
property double y
property double z
end_header
-0.050316568065441 -0.017280445311805 1.016426646690847
-0.051741279474311 0.059488581809597 1.013571050723836
-0.047290953278921 -0.014264090249192 1.030531778346307
-0.048461536709462 0.055399384846570 1.028568202448977
-0.027336762689052 0.020430294727406 0.992887656876313
-0.023412697469028 0.021001311034987 1.025417581389716
-0.061034698487466 -0.016712772793412 0.978672694606738
-0.059990921831537 0.053524805184566 0.975229620600757
-0.057785821468973 -0.018631078929421 0.997801740910698
-0.055222935663236 0.052237446346979 0.994679413452263
-0.039431505398542 0.017271957231557 0.950015906831872
-0.030147860538400 0.018322935894969 0.986656634330752
-0.074506825128081 -0.023377973504378 0.935234558116670
-0.082948606756371 0.042728738752993 0.923523065091096
-0.067180840230550 -0.018688437774732 0.953304394891522
-0.075794955609326 0.047184980883100 0.945736885528758
-0.048549504086576 0.012913713846129 0.902760191946708
-0.040838211788705 0.020247929609354 0.942580348534779
-0.090062646862259 -0.031404096415078 0.885648479381647
-0.095733713326017 0.025930313513443 0.865599891050840
-0.083866091066795 -0.023547477894781 0.905996979881211
-0.086574817524062 0.032237471566682 0.889094897176817
-0.054697960760636 -0.002842220810256 0.853715292631122
-0.049439723654386 0.009668952260483 0.893059602296209
-0.100767402127530 -0.043495752549932 0.838703479676463
-0.100894723331247 0.010422333686116 0.819773774651051
-0.095310080957285 -0.035754623363917 0.859628655203773
-0.094207659383280 0.017693274669312 0.840184778286984
-0.058973638274563 -0.024467791565288 0.808212237709855
-0.056046536661828 -0.004535206997868 0.846559069338547
-0.110514290397561 -0.064180689684773 0.791646077211633
-0.102100287940991 -0.011805376337405 0.770981717241029
-0.105151109753702 -0.052074372320400 0.813320518731728
-0.095426599149778 -0.002273262219099 0.792447814973223
-0.060027960727164 -0.049548525410290 0.760332005890093
-0.058934027233406 -0.030350545606136 0.803937589054141
-0.116421994250047 -0.084744478765168 0.745105933212814
-0.103958405871606 -0.033846863024580 0.723835318540874
-0.109524786012308 -0.076536247950969 0.765035945634705
-0.100224936635328 -0.024446699971945 0.743900883032176
-0.058413167763653 -0.077017753594119 0.713959822994360
-0.056213211692149 -0.059891637014093 0.759995826469368
-0.116900156104008 -0.102764930345851 0.688493524534464
-0.105193292940388 -0.048874880496076 0.676387207170091
-0.109856850000184 -0.097895858858236 0.713418129145817
-0.099555664368515 -0.043845564341964 0.702594026327971
-0.061821260590431 -0.088892835075377 0.661180425584285
-0.060441561728330 -0.080749165113973 0.704243028827025
-0.111372100931698 -0.111223173705531 0.625087307868667
-0.099119942915793 -0.056642502781047 0.624558474747772
-0.106687709493111 -0.111078619126765 0.649341611354994
-0.098508029494291 -0.055913042308840 0.648112897435483
-0.058269384828546 -0.097185689477501 0.603959961702727
-0.061233525336908 -0.094797709567780 0.652504321498244
-0.106226781014198 -0.109255996804460 0.561664115042373
-0.097110325613483 -0.045080965839852 0.573826505179294
-0.103326429714972 -0.111401937819841 0.590649108586822
-0.095805476186294 -0.050327628291219 0.601155037002651
-0.048688399945177 -0.082528575391380 0.551643550487988
-0.053302571810805 -0.091867264165857 0.594866398397225
-0.093601147467390 -0.088902094799284 0.499550915934328
-0.091785469938014 -0.027684002335554 0.519350263363313
-0.097823838783406 -0.096322220223200 0.530677477846757
-0.089834754768333 -0.039337107657605 0.547251097567016
-0.038984980934596 -0.055368261885661 0.496494435401453
-0.047265746252731 -0.072032163914010 0.540796298360375
-0.079595557843927 -0.059580921834112 0.430615100808902
-0.099931712044949 -0.001048920946989 0.456422208551476
-0.075976034654613 -0.069990909221685 0.462604874761080
-0.093451191383012 -0.018009134140353 0.489831806836017
-0.032982622126620 -0.020979447797985 0.436687679189838
-0.036272910688140 -0.043278663467230 0.481601198355710
-0.069457960667943 -0.032611204312139 0.373359398533588
-0.075262521484690 0.035158657244699 0.394080602920397
-0.077553017078837 -0.043289466478455 0.399423720829127
-0.082541950548134 0.018164234515790 0.426541336719053
-0.018318048818463 0.025641718785017 0.376360835152130
-0.029450294670760 0.001921649925197 0.426807296566818
-0.043859196713271 -0.010242283499041 0.302053608517150
-0.065333525311160 0.056331530386513 0.315812014955213
-0.051884290765759 -0.018612816696160 0.333222610830818
-0.067020081134947 0.046642000961792 0.354732949466122
-0.004916141750808 0.048996542979628 0.295937303662210
-0.013160897031527 0.030382440210703 0.360537510282868
-0.037501110178545 0.001286072764822 0.233747454617381
-0.045173820293472 0.068582145115099 0.235915516084318
-0.045764642121631 -0.002863055189046 0.267872109359163
-0.051309673454437 0.065688224179697 0.272026638818643
0.011881511845083 0.052907490257451 0.216638056983298
0.002928902114605 0.047673945748285 0.278732222214424
-0.020346185568587 -0.007141047633950 0.161911030978177
-0.035751279574728 0.069667076099503 0.154165529144761
-0.027207898198017 -0.001982866988802 0.195556752222339
-0.040644272015769 0.072633788753394 0.186619060935933
0.019192578298542 0.035289579452157 0.132101150362372
0.016719203157236 0.044147534227144 0.197342335649017
-0.007328814257614 -0.027779943363810 0.096169306171462
-0.030924648488352 0.056575369782723 0.070953791900707
-0.011144334936287 -0.018776662366398 0.122497273383789
-0.034824792754951 0.061659987065723 0.102245742770693
0.017765809173248 0.014028738933229 0.049369632688703
0.024337898216041 0.029681016124769 0.113193823003068
-0.027138193054164 -0.053066963280289 0.022895310395740
-0.027124560682857 0.047924987151979 0.001850015672196
-0.023687659826147 -0.048395689783903 0.047934889912268
-0.029528230680309 0.046811248137643 0.030431439583043
-0.013766380089206 -0.007636700077512 -0.026616947762582
0.013766380089206 0.007636700077512 0.026616947762582
