ply
format ascii 1.0
element vertex 108
property double x
property double y
property double z
end_header
-0.152570501413935 -0.097524324987357 1.008601589403747
-0.154354343956810 -0.024042646604753 1.000970778171860
-0.152881011775175 -0.094620199779400 1.025691376644079
-0.154474574383804 -0.023516129035694 1.018535373708624
-0.128101826442344 -0.061524482220048 0.991722205410656
-0.130202292758002 -0.058418104980242 1.022562838287433
-0.148796488688640 -0.102354174831060 0.970166316313373
-0.147576863086000 -0.028984066209099 0.960727973068885
-0.149342110668768 -0.097778031566352 0.985599369025807
-0.147372063799341 -0.027625869944840 0.978471131167773
-0.125404028873932 -0.067234918051288 0.941656421587004
-0.124303869521843 -0.062302413838775 0.977479994321517
-0.160381148835351 -0.109475025650149 0.923313894431514
-0.161018981439572 -0.040139768645943 0.906821183718457
-0.156691450244241 -0.101692398031633 0.944548829422839
-0.158019079450790 -0.032948358868640 0.929889377995955
-0.127307847118320 -0.080487775372538 0.892917502793460
-0.126809858803124 -0.068974693085965 0.933055106272815
-0.166993058143564 -0.114480126624724 0.875796639044457
-0.163813065239772 -0.057709203966845 0.858944510677823
-0.163277887004361 -0.106638402694636 0.898856936832046
-0.160420121833932 -0.050525945404931 0.883448337765780
-0.126958363758499 -0.093001164622680 0.848036910859394
-0.127329753509679 -0.081299076029265 0.885134110998501
-0.167972987068659 -0.129816638379891 0.826389320588981
-0.167068202160435 -0.074213632052024 0.809496436145400
-0.164167388383730 -0.121353893727321 0.850507748024308
-0.163844396473925 -0.066798063851513 0.833798520652469
-0.126484574363990 -0.110359432519899 0.799948051493155
-0.126721978512207 -0.096812367268188 0.838419495601820
-0.170116247265111 -0.145858230266240 0.778258940969352
-0.168166068983195 -0.092120323909662 0.760654098806602
-0.165925503653033 -0.135394362235572 0.802762513331828
-0.165041860959725 -0.085282218374394 0.785253193224423
-0.124873435697178 -0.128878484433666 0.751054769058173
-0.126093570750780 -0.113687930379067 0.790898928783510
-0.169070089714977 -0.164932329002930 0.727369374940409
-0.167044003239748 -0.109202724111046 0.707873196081837
-0.165548255215792 -0.153746059508375 0.751196141700083
-0.165001359608259 -0.102098175722737 0.731968698223880
-0.121537296073583 -0.150710750677746 0.701381771926099
-0.124103400568360 -0.134992405426682 0.741236120670673
-0.170169230165142 -0.178410108923830 0.670535535088742
-0.153599592356847 -0.127022045128729 0.657728447359101
-0.166900847519471 -0.167974770147025 0.694966001238194
-0.154372174740474 -0.122137174581147 0.681662708271723
-0.115195905226107 -0.167925353403727 0.650877350824305
-0.120208902690591 -0.155484306190166 0.689759921859173
-0.162219757356624 -0.190459897798700 0.611978732084140
-0.140413727837079 -0.140139133768649 0.601985087291248
-0.160430565578650 -0.181853997425854 0.637026907524820
-0.141352136508785 -0.138054460432808 0.626742366232719
-0.103626273882769 -0.186855022792735 0.597094103332124
-0.110377518029044 -0.175749756001113 0.636616799500541
-0.150286632752016 -0.201470151985939 0.551058331342090
-0.129913179337159 -0.143076628014606 0.550382289915732
-0.151581147646046 -0.198513553328913 0.582135094739679
-0.134072336989603 -0.144495958394286 0.578772463666069
-0.089643373333206 -0.185576555604003 0.536314820506504
-0.101888027200979 -0.183829138804900 0.584845883307618
-0.132070704160542 -0.197798538903974 0.483724197715984
-0.116133294995888 -0.137954862769769 0.499745666289341
-0.134768247003473 -0.201868287912615 0.517433548958870
-0.118573055652130 -0.147861900899148 0.528580081278401
-0.073353933553923 -0.174742826175041 0.482906783647715
-0.086908131119099 -0.186290296401538 0.527662560096131
-0.112540137362046 -0.176157826221545 0.416157754451280
-0.103892971461292 -0.109984986062948 0.448543806820792
-0.116418078083556 -0.191147911322662 0.450932877106330
-0.108963282158983 -0.128239123476560 0.480803005900806
-0.054235767309034 -0.141731932200835 0.421373513398575
-0.068322595854812 -0.166292563071037 0.466681534689623
-0.091147782023514 -0.138946763792467 0.351865043067345
-0.087913277866805 -0.078320825706361 0.388818578035214
-0.099478324151486 -0.156469584350361 0.386812869598459
-0.096269292542869 -0.096435883007390 0.420407594374931
-0.035460716286944 -0.106392847331030 0.362544408854871
-0.050751377455544 -0.133622746515781 0.411599441970236
-0.067694952269828 -0.100044069444607 0.286676207441538
-0.070034605812068 -0.040668324018850 0.320083454264054
-0.078378393665048 -0.116671020486108 0.315448724138734
-0.077979238836448 -0.058542411014930 0.350947267159594
-0.014917870427276 -0.063703149258348 0.295985914318163
-0.030328507297389 -0.095533900079456 0.346814855682647
-0.044294341239731 -0.067608345606316 0.225514326943578
-0.049202646531557 0.000411509014425 0.254063194668527
-0.054152726802255 -0.078014900403777 0.254868381913712
-0.056567779086847 -0.015535070267542 0.284693424298065
0.003030596409233 -0.026238125524793 0.223648462795847
-0.010299697458216 -0.053947672790115 0.279717616753795
-0.031076381309367 -0.047641688784486 0.154743437128913
-0.032545383157827 0.028444557640513 0.175457967962721
-0.039383998144057 -0.054487181358701 0.186465165444189
-0.038859773104326 0.017089914603071 0.208176946535794
0.014387531976003 -0.004681981702030 0.142775669858900
0.006492570420402 -0.020437516873308 0.207959665700570
-0.025112493624613 -0.041437340245744 0.083117433874804
-0.025283159696828 0.043083631028923 0.085207965896706
-0.029727355162421 -0.038772147538890 0.116115591574964
-0.030442114861879 0.040117607529103 0.117928472822664
0.012959540929971 0.004162341720956 0.054365295216082
0.016711901989388 0.003320728731999 0.120930412615294
-0.031856096006460 -0.049925812171886 0.010372166857537
-0.030916413707350 0.048315437681517 0.005197928163631
-0.031713195011665 -0.046636542036780 0.037498392771555
-0.031269463223904 0.050000956188757 0.031491201755044
-0.010046500330183 -0.002664046442190 -0.030400212520268
0.010046500330183 0.002664046442190 0.030400212520268
