ply
format ascii 1.0
element vertex 108
property double x
property double y
property double z
end_header
-0.049711110822837 -0.081259363372799 0.982153049205209
-0.052895489775627 -0.006560920910285 0.969484108207977
-0.045069261197881 -0.072180109183819 0.995761055751396
-0.047952729773132 -0.005614946704703 0.987002926157494
-0.028840570904448 -0.044696961368527 0.954041725389186
-0.023439024926674 -0.040821972629190 0.985642944306624
-0.052840220522609 -0.079767093541327 0.935106376954924
-0.055053805281194 -0.017460478182443 0.922829182376070
-0.051816971713272 -0.077488516235212 0.953834465690371
-0.052430818648406 -0.012276938702682 0.942963566549406
-0.028871276045013 -0.054910258749052 0.906107930452736
-0.024687188890652 -0.043706720585297 0.939402281996177
-0.063713166672945 -0.094072106778346 0.901909258356606
-0.069671499199636 -0.031764723790948 0.879036487397190
-0.058129436861149 -0.087436470026018 0.920016847376463
-0.063558105713090 -0.022718477628075 0.902938648194057
-0.032105806727394 -0.067753451418992 0.864521911575814
-0.029876357646183 -0.054744450989999 0.899490972660919
-0.073703084155857 -0.106433228741411 0.847051965975029
-0.070706774189029 -0.052818471048042 0.824291268778677
-0.066832553078205 -0.096403650451935 0.872376286532411
-0.062967543509551 -0.043200853394484 0.850951262950648
-0.032741403137095 -0.090331964781324 0.820804188315148
-0.029283748433274 -0.073704619412885 0.861699853281693
-0.081705611415681 -0.122538842596412 0.798395320854439
-0.084627461416639 -0.068405423903661 0.775064787424429
-0.076430468266567 -0.113588294121634 0.824511066409890
-0.079543713643715 -0.060465586305824 0.803263365014892
-0.035246174978707 -0.111508532600679 0.771425972391273
-0.036842586411930 -0.094932618342687 0.813900137459045
-0.088862212052933 -0.141062998023270 0.746067364426927
-0.075344018042899 -0.088379885469886 0.728755294423882
-0.084903040053212 -0.133558405792946 0.775063252167400
-0.071479776102759 -0.083858297645478 0.756867897620762
-0.032619350203348 -0.136394793152663 0.723495247968879
-0.034707043885615 -0.122753522704197 0.770148382667586
-0.087449007958416 -0.149684489741657 0.691037867382013
-0.064320360827623 -0.098014135074584 0.685299588362706
-0.082130621736339 -0.147723710640392 0.719102621734845
-0.062585264509513 -0.095915182840776 0.712211876439655
-0.025530556751512 -0.147593469669161 0.670264560408748
-0.026916637971862 -0.138952275485579 0.718439390698635
-0.080440303748221 -0.152274212472166 0.625080154933747
-0.053512663100989 -0.099433991949557 0.634730524737241
-0.075774401763156 -0.152254254130799 0.658621682858739
-0.053300541754917 -0.102020900042181 0.660744943328827
-0.012885923990560 -0.147377766056690 0.612725173998794
-0.018999573353278 -0.147388001103545 0.666211225977960
-0.056027158237114 -0.145669792612747 0.562634087061463
-0.042761514008230 -0.089056422067008 0.587076658332278
-0.055656649540959 -0.153638288341778 0.590305559738888
-0.048272319111182 -0.099872819583469 0.608860420306312
0.005902295645160 -0.125731409586686 0.561367755889317
-0.006313232776392 -0.139966824505090 0.608960467889321
-0.037760158362489 -0.119470119673084 0.505270999333588
-0.035060408878287 -0.063882300822225 0.537750385271193
-0.040579146142553 -0.132884427957538 0.532015688518285
-0.039090202701308 -0.084789942785463 0.562210867874004
0.023223321314203 -0.094780372020718 0.509734247390922
0.008551637523600 -0.123603799221684 0.555580604521276
-0.022227707131374 -0.081925153170723 0.453475265342541
-0.024344826573349 -0.031026265160353 0.491976696973510
-0.023417019575935 -0.099076788814314 0.482168707448447
-0.026439428912244 -0.053793103384819 0.518467045243858
0.037397325951476 -0.044578746577351 0.466626532922819
0.024075644841060 -0.079291675614908 0.509326380773747
0.001390942867607 -0.035261271672818 0.404475490276133
-0.015160407277933 0.011863954562079 0.445741152186491
-0.001290383532256 -0.055324266394340 0.430632431895176
-0.013122353572913 -0.009406263936000 0.473822538490462
0.049909414855654 0.005290751595568 0.419759997497184
0.040400544574931 -0.030347425677689 0.462038673170024
0.010710208905339 0.005088865296351 0.350796251787578
-0.007223896070324 0.069097313071065 0.387096124840016
0.010231976341035 -0.013747970811930 0.378929069201996
-0.006172500882134 0.046636758623739 0.420876129356731
0.059851483494519 0.048311468165403 0.359015250288387
0.055103701134613 0.012082728688607 0.409693573039030
0.017598907191158 0.027656631859485 0.292756371586410
-0.000799357159383 0.096265989071734 0.317387523595530
0.013388464791145 0.018307428309702 0.324776971548735
0.001184706673477 0.087710001653221 0.350153746721249
0.062358558221673 0.076607022824817 0.285803960133918
0.060387799949725 0.057975399405980 0.344376062771550
0.023426231118105 0.032395458553393 0.233038455453350
0.000981796869575 0.109739404751777 0.237371206663282
0.021690623047653 0.030615839781464 0.268008028290799
0.005661772044065 0.108915739356113 0.272855602357541
0.060438463431658 0.080178542424902 0.202758836961077
0.066147316691257 0.080037298778301 0.270426825738828
0.015562388743167 0.019064054148465 0.163199613237633
0.001701832415830 0.101459251846008 0.148758473877442
0.015028886925845 0.024272669493021 0.194992739283604
0.007121033849430 0.104145184016955 0.185629718420567
0.048018745825347 0.058660124040586 0.129007136332658
0.059800052384072 0.072007648644311 0.189100934561471
0.009101003663547 -0.010173380697790 0.098461406622152
-0.009691309990915 0.076326838417159 0.076806094486149
0.010497831683096 -0.000069854194786 0.127312724325797
-0.007786823647354 0.080967408661258 0.104049742205031
0.029852305286074 0.027625414966577 0.058477940206565
0.046938436629792 0.044124310496985 0.112962676882617
-0.018082001402719 -0.052317465504486 0.032979112100304
-0.037115094534447 0.048588326182833 -0.000274811008059
-0.020287142247648 -0.044180347378517 0.056832912300781
-0.039637521831884 0.061118326419007 0.020476234738296
-0.015960276189658 -0.013287137827280 -0.024195394889265
0.015960276189658 0.013287137827280 0.024195394889265
