ply
format ascii 1.0
element vertex 108
property double x
property double y
property double z
end_header
-0.069784467670198 -0.068801814539911 0.962992574985948
-0.067571069938718 0.002365749205224 0.953746311318048
-0.068251795193899 -0.066131084879961 0.978679781651297
-0.067731191615131 0.003398631145616 0.968451697374824
-0.042826027020172 -0.035778175692891 0.944153718616937
-0.040990871654290 -0.032430883386333 0.972668419858504
-0.071844681406220 -0.071655976484278 0.926929399359478
-0.070390543478317 -0.007021765646895 0.917625969200518
-0.069418158115841 -0.069752831845049 0.943184385834080
-0.068082515778628 -0.005165519730913 0.933342036618635
-0.043357175873990 -0.045631347690625 0.900060871054612
-0.042713359081483 -0.038357882978728 0.935670044839470
-0.076134388293533 -0.081531071553825 0.888242670303543
-0.075365415736621 -0.022024361955729 0.868875717660332
-0.074863127635571 -0.075009651457314 0.906979404008916
-0.073112334470086 -0.017766845908041 0.886488269543962
-0.046053436199850 -0.061727045010530 0.855717989470715
-0.044009872898118 -0.049805889074107 0.890353390356907
-0.080783744561489 -0.096720707741172 0.843219618478941
-0.079862420530833 -0.045490096506407 0.816477355967434
-0.079120643683259 -0.088204010602366 0.862697019002935
-0.078375536748828 -0.037137961159823 0.834625774327930
-0.045294176396273 -0.082727405257488 0.809304071368509
-0.045831430409330 -0.065929892132303 0.843547632034434
-0.082059722842500 -0.121610886945271 0.799353771837423
-0.080298661909204 -0.073002164096541 0.767260059745442
-0.082066660523454 -0.111584272923694 0.812870871900444
-0.080485146773240 -0.065453412204400 0.785440946452802
-0.044809648758464 -0.113768254887930 0.767397425828326
-0.045984336897551 -0.087741406036371 0.799555519599558
-0.082546748045452 -0.149018334306623 0.753744347218612
-0.079074022467250 -0.101269051374441 0.721995854130889
-0.082718247518629 -0.138223025235372 0.772346489913483
-0.080989932439434 -0.091320971901261 0.739213235707394
-0.040906231946654 -0.145821728430379 0.723335936583913
-0.043848641192753 -0.120525833644107 0.757394677429230
-0.082053062668784 -0.174780163745748 0.705259392598097
-0.076134943308010 -0.127919181482884 0.679328838758176
-0.084123821679855 -0.167319659155339 0.723650352284736
-0.077234426985558 -0.121242357333008 0.696068352870588
-0.035855600212335 -0.173687340241916 0.676164146214320
-0.041661606648897 -0.150055378855587 0.713834088749676
-0.076226520696599 -0.200828935669121 0.650896002151862
-0.067062954185667 -0.153979886217496 0.634990952304566
-0.079236364201568 -0.194145728852768 0.669840588778609
-0.069786965235342 -0.144693939014540 0.650775286503267
-0.025268699076934 -0.195071492999234 0.625203827029512
-0.034830488474611 -0.178775990467862 0.666321519491636
-0.064584259534516 -0.214798372530325 0.587028266306248
-0.051328571289833 -0.162953360270296 0.582343944126286
-0.071221400149336 -0.211119181566940 0.611920943075490
-0.057772844374138 -0.159293872320820 0.604173773508072
-0.011192699436281 -0.202618857355184 0.576532110037722
-0.022457828261719 -0.197744442717090 0.615282110743956
-0.045562248388326 -0.217458279407987 0.523101976433384
-0.032819671026980 -0.162841802360560 0.532130119412100
-0.054130839380665 -0.217834301715679 0.551182656354487
-0.041186514257185 -0.167470900600131 0.555555615413245
0.008489501429467 -0.195978109146269 0.521789367196938
-0.007365042100486 -0.203557109327368 0.565644391056168
-0.022006601492488 -0.201922314187429 0.461517570143264
-0.020439795625896 -0.143204835174630 0.491880469590907
-0.032519963209779 -0.212251966113066 0.495003258541802
-0.027157135832541 -0.155550022170946 0.514813112737099
0.029901959925077 -0.176582573257529 0.464436668781357
0.011361146329838 -0.192741542227732 0.511139471918477
0.004055213271078 -0.175297714744897 0.400479020590583
-0.000182877269940 -0.114384320956622 0.442452267867922
-0.003622301979564 -0.190112438653504 0.428657938073990
-0.009479647255184 -0.134306565583369 0.468808795318401
0.049126828862355 -0.140720867885955 0.411786608023457
0.033638594886759 -0.169048529249010 0.453263949866223
0.019204333401655 -0.135388288797675 0.345019754060896
0.013113327031513 -0.070042549401677 0.385496959817371
0.012469787746244 -0.157929646738077 0.375753958193183
0.003841255190464 -0.094312777435750 0.417681971790704
0.066290096527421 -0.096783424376994 0.355764279307565
0.052744413218871 -0.129701610473517 0.401020992226688
0.031489301327292 -0.093432246969102 0.290654143556756
0.021865072801031 -0.031338892404215 0.332259693743547
0.027626400572252 -0.108563051621961 0.312703481163919
0.016249713837078 -0.049029701329003 0.357944653677705
0.078121062611445 -0.048245465873992 0.290247595452867
0.068095003604344 -0.086556727636711 0.345063322697285
0.033436569617386 -0.053804490868602 0.231944989761101
0.030746691958004 0.010013848688622 0.265601900125578
0.035473750252641 -0.068982194244708 0.258512700219813
0.032801078042024 -0.000875257829123 0.289493053272339
0.078148535828022 -0.008258892914565 0.218051034868674
0.079149781943265 -0.038007113829707 0.274572044091521
0.022827190395696 -0.030477509936999 0.165206441536831
0.022336002584171 0.045031377041746 0.184419932677345
0.027357773565723 -0.036220522230501 0.193297111718507
0.026831064827716 0.035096062901520 0.208904673806507
0.061204221373856 0.016784470284992 0.133376916335568
0.076813448505285 -0.001500204129436 0.197863493322256
-0.000320243352825 -0.029325577391441 0.097027075732089
-0.004958221824016 0.056519621686656 0.102561957596980
0.008552773079765 -0.027443523302311 0.119180478553558
0.006060758081184 0.053567222179984 0.128110383969969
0.027785134712473 0.005366712478572 0.043847253656562
0.054968633732638 0.015751033330123 0.114103206124376
-0.035633871929054 -0.049927714751654 0.031400776518322
-0.044150014053383 0.049911341824603 0.025304220003417
-0.023295345106454 -0.040727517285286 0.049374087811546
-0.031443790140235 0.043591391982988 0.044290987730363
-0.021342249164358 -0.004314682538747 -0.029288668928767
0.021342249164358 0.004314682538747 0.029288668928767
