ply
format ascii 1.0
element vertex 108
property double x
property double y
property double z
end_header
-0.146718488830920 -0.084301338492872 1.033805226068004
-0.148761573875679 -0.006923844684275 1.039966249535481
-0.143270481018724 -0.079677139912278 1.046962653092785
-0.145040866691294 -0.012044391702786 1.052415369803234
-0.124805200882885 -0.043195402652051 1.008242392001952
-0.120201842328871 -0.046223051879345 1.043064805682477
-0.154485210931658 -0.077948688439532 0.990591397782696
-0.152839865418563 -0.006685963405274 0.999423248558964
-0.151845897809401 -0.076350360059574 1.008372006801408
-0.148980394154761 -0.008811137823022 1.014933057120539
-0.135615329304184 -0.037783349408098 0.964256974439883
-0.125903368624943 -0.039775859266402 1.000070305969582
-0.174920127725897 -0.065820047117100 0.947198904391472
-0.177088507076797 -0.004757498506700 0.950626580470420
-0.166318025535332 -0.067373391537248 0.963367206963617
-0.168628218725636 -0.007475597095293 0.969909196282828
-0.144555192413332 -0.032548436390068 0.917869870887894
-0.136896990938805 -0.034818982700539 0.957052170616787
-0.190320144927933 -0.057125689686922 0.900179992228801
-0.185548795427957 -0.004280719362035 0.903067606643349
-0.183277486677490 -0.058338223428500 0.917616740808956
-0.178448700031088 -0.003948549670095 0.920258087104537
-0.149809928871279 -0.025212492887522 0.870671785325974
-0.145939529300856 -0.027135112412786 0.909156198311129
-0.191625188055789 -0.052536817492847 0.847628053009350
-0.194707224669521 0.000922679469461 0.846387054841225
-0.186724732049689 -0.051160867445289 0.868253579802789
-0.188601351028480 0.000614653710754 0.867561030139029
-0.150819907720374 -0.030210795359878 0.817970407867151
-0.149701408245068 -0.024185994505163 0.860747358034291
-0.193812882553275 -0.063920046645074 0.793311573490638
-0.195407144586584 -0.006985856470682 0.788093180005872
-0.189094141413078 -0.058197680322423 0.814106361963367
-0.191859257134807 -0.003267690752953 0.807220003912268
-0.147534553774162 -0.036124534121726 0.767121505453886
-0.150677077294307 -0.028607129899942 0.811901639639287
-0.187839165178345 -0.072141945423902 0.748899951970358
-0.193602703260824 -0.022334536046267 0.733798302953736
-0.186823849249273 -0.065144779426601 0.766471906576612
-0.191794958028410 -0.016142252538921 0.751973601744125
-0.140464955977165 -0.054691981217136 0.717673205314743
-0.146894612470181 -0.042385437228784 0.758852081248591
-0.180225439370298 -0.091177276530681 0.697250487560453
-0.175040084952060 -0.041305059753318 0.676727127726585
-0.178489617644250 -0.081288429772183 0.716527766292884
-0.177714216167504 -0.030608534891542 0.695120738502724
-0.130223353646813 -0.077454119028275 0.667765408004196
-0.138953545756841 -0.058349151735121 0.707792491249544
-0.174494940354348 -0.108986095829275 0.645684129110199
-0.164951224767734 -0.060269738087061 0.622780431606322
-0.174758744593241 -0.099266510750066 0.663814443940777
-0.166705853347037 -0.051503203003852 0.642803884948954
-0.117937141391709 -0.098377251567131 0.620714981654990
-0.128307341934854 -0.080293699723024 0.658145448417902
-0.161988637086834 -0.132319809491348 0.585728389228488
-0.149774348338095 -0.082842282485662 0.568444891087690
-0.162607738364236 -0.121274595404369 0.612757649555052
-0.152869854725104 -0.071368322973815 0.591815456016275
-0.104029727556742 -0.118177309990701 0.568281983075040
-0.115884144626992 -0.101168798542082 0.608871238744696
-0.147402397508050 -0.151325405438252 0.531057883404595
-0.133358761060321 -0.101537057060537 0.516895306317366
-0.147855032719484 -0.143551821377543 0.557793350185725
-0.135595505864268 -0.094488045143454 0.541311684774896
-0.089028212326367 -0.141608615972365 0.512109724604116
-0.101565521487084 -0.125150840348102 0.558446761262983
-0.136900548992124 -0.166729488986938 0.457625254139443
-0.113598349516585 -0.107728323981220 0.459494248718266
-0.136457063060652 -0.163510721467113 0.490914146839737
-0.117147507701690 -0.104385278741917 0.487338811548075
-0.074016785376034 -0.148794104648876 0.447735390794282
-0.086180498938319 -0.141782960584967 0.498709841660353
-0.129117307358122 -0.157365200946238 0.385799848387546
-0.105266151084887 -0.097115921665758 0.396587357755606
-0.133768953778600 -0.165368025299319 0.417310985161967
-0.112421396308191 -0.104476009101536 0.427013796561246
-0.064191729430601 -0.138641453651484 0.377007136197781
-0.075218390810991 -0.144677436959486 0.433576371760371
-0.111002749620811 -0.138631796078192 0.305040424899810
-0.092730620950829 -0.078416318304237 0.332147199959382
-0.119401534478897 -0.148678722062693 0.335090218347030
-0.100903215276530 -0.089743635190032 0.358732974354473
-0.047274456634932 -0.112209692135746 0.300252810013236
-0.061255827149589 -0.132834456489188 0.361023089958195
-0.079174946101053 -0.109920084825355 0.230420676559640
-0.071208464721153 -0.049552627345371 0.262320149439098
-0.090212027494732 -0.122604544905455 0.256173104038229
-0.080296495336346 -0.063625236512978 0.286299395631795
-0.023326724628769 -0.077591358227699 0.226165244790832
-0.040413767397059 -0.105893385055588 0.285562878594886
-0.051872732255634 -0.075750319782092 0.153782495401274
-0.045658083841716 -0.009003272702215 0.183603048556123
-0.063127363195068 -0.086016320192341 0.179499342346679
-0.055775662599255 -0.022237960313339 0.209555489460540
-0.000000635366664 -0.040826755728659 0.149017753714604
-0.015186406929599 -0.066632045713693 0.209189518262075
-0.035535676297531 -0.053986978366761 0.076539445178780
-0.021862077394916 0.026861904747266 0.103425366785946
-0.042562831601373 -0.060076078327873 0.100131371853103
-0.029013510418236 0.017443483466793 0.131181232429460
0.008774032409844 -0.011171397906449 0.060175703820789
0.006956121310807 -0.028980471351708 0.124807996496207
-0.038342472072418 -0.049533058052120 0.003122827153561
-0.032208896444826 0.051513877163807 0.013342572870671
-0.039072127149356 -0.050338448835407 0.034113471556833
-0.031010849063187 0.048405155150187 0.037615866755468
-0.011592264784683 0.003492864698675 -0.033344423746727
0.011592264784683 -0.003492864698675 0.033344423746727
