ply
format ascii 1.0
element vertex 108
property double x
property double y
property double z
end_header
-0.103864292764752 -0.098093175119296 0.964179836535837
-0.102950029057071 -0.023309045893525 0.964641922256847
-0.100421355081705 -0.092177982503650 0.979644984195586
-0.099363154011256 -0.028870862651055 0.977449044965129
-0.083108690182443 -0.059249076995958 0.942012381810121
-0.078707179202030 -0.059617864885269 0.972786630313769
-0.115493495945979 -0.093113988183909 0.924447620114882
-0.116624904164605 -0.023223178862581 0.922096184498259
-0.110766130591727 -0.090840988797475 0.941463052983952
-0.110826127427450 -0.021797290762191 0.940933539626464
-0.097608934603443 -0.058482878873687 0.896839718377297
-0.085362974959568 -0.057473666045252 0.934265909630686
-0.138391370864406 -0.090422937451308 0.883054482117813
-0.139920739745677 -0.030881307077486 0.875481395289323
-0.130019885777042 -0.087393372462101 0.901614695899349
-0.131929051141334 -0.027638450585132 0.896162139434398
-0.113585981870743 -0.062267633391454 0.849545148506720
-0.102386113844236 -0.058894600278471 0.883607663951780
-0.158768553037907 -0.094880041829961 0.836512074412525
-0.160957611897296 -0.035702245478280 0.826379489546278
-0.150169465275572 -0.089775081711429 0.858670171833588
-0.150058553693936 -0.031251195826168 0.848595657299165
-0.128308875099544 -0.072406272984242 0.801658041079661
-0.117141482424483 -0.062055167532836 0.837534772768257
-0.177377479846613 -0.105326646831808 0.794296044035575
-0.176503122291134 -0.054568773379819 0.773009276806721
-0.168084300250813 -0.095737336065188 0.816674588545695
-0.167890549001504 -0.045959777883144 0.795889813190054
-0.139527182520516 -0.091273076100623 0.755863392102177
-0.130721408411261 -0.075616103695463 0.793034183981476
-0.190735582670119 -0.128339286339670 0.747090368559213
-0.188585879533246 -0.072043815036314 0.721465114548940
-0.181549461648157 -0.114843576094779 0.769912834610721
-0.180900229834063 -0.062903930107938 0.743363959588113
-0.147183384231522 -0.117688196709645 0.712411647081192
-0.140713633707696 -0.097097723032998 0.751238681884278
-0.204060659712492 -0.145801392898555 0.699723417184987
-0.188715505724190 -0.099144495818675 0.672245416853190
-0.195409831559717 -0.137594761502010 0.720742950801512
-0.183559906074588 -0.090788973192192 0.694569193609599
-0.153794319969690 -0.148240071620336 0.662988840831479
-0.148692937644113 -0.127291543433246 0.704988552342012
-0.214810276256228 -0.174125403657026 0.639863913667767
-0.195541659469403 -0.117802961299080 0.621806242189128
-0.203110893290094 -0.163689532034048 0.668227004933912
-0.189851317380300 -0.110642971949587 0.646969685693234
-0.155874668966185 -0.169384552775478 0.613586400480129
-0.151348485661997 -0.150120889855823 0.659638375335602
-0.205498657265963 -0.187826699389466 0.582947557679124
-0.187606389907829 -0.134406672763367 0.581369200555840
-0.203187127801542 -0.184708515220887 0.614053164853467
-0.187586299224307 -0.134458137938965 0.607817071731152
-0.144228677679548 -0.177469814426362 0.561587583302093
-0.150973643046145 -0.170653843630331 0.612021528884142
-0.190815394974522 -0.191182118752512 0.514914723761333
-0.169225340988936 -0.137959421168679 0.524648522320406
-0.192026890712393 -0.191876761015663 0.542716101533384
-0.173447411891864 -0.143813516089230 0.549939390296714
-0.127346724009221 -0.173239487078151 0.507071651172086
-0.139783957968820 -0.180045825354685 0.556374188535509
-0.165500032877207 -0.174954901193134 0.450984517504707
-0.156013652461783 -0.120621436503883 0.480400855974131
-0.170441790593977 -0.186466037206813 0.479994638866203
-0.159010466884701 -0.134931507468529 0.506131517269185
-0.107603912048304 -0.147598270606997 0.456652842406389
-0.124522469292720 -0.169977090331961 0.497875897630627
-0.138436781313463 -0.141505289202922 0.392137254179193
-0.136087272200739 -0.092300177893839 0.435911275781062
-0.146090506090884 -0.162556472526365 0.416415606748952
-0.146854227279570 -0.116127178121456 0.459800199348301
-0.081355846848844 -0.106292100500243 0.411747137371052
-0.101726974295803 -0.141957191974750 0.445104001959250
-0.102556747046754 -0.093177562812589 0.339164451672594
-0.117699618125620 -0.037814244181694 0.384561139987433
-0.115245802587487 -0.113306776412754 0.359768135661694
-0.130069699663583 -0.068541155732386 0.410353999836952
-0.053872617435033 -0.052024962588100 0.370172082362912
-0.075790452298358 -0.095123331750969 0.402221951662797
-0.067387592718918 -0.049889295408208 0.295325479367833
-0.081892791007087 0.008887237702714 0.327705331264199
-0.084294866154780 -0.067297184643068 0.320253614181370
-0.096768153258782 -0.010637604102729 0.354630424976872
-0.020908759642310 -0.006946973061189 0.313560664420058
-0.047567170172340 -0.040838855303731 0.356221166768081
-0.042476246010789 -0.027269662695821 0.237082037407354
-0.054674043057178 0.044858918512066 0.259521129182884
-0.055556106628255 -0.032993580995742 0.267521624662196
-0.062169519300007 0.032939363671717 0.288181727694063
0.007136733695279 0.021382266779295 0.239029457634792
-0.012836433089036 -0.000512174822394 0.296139289657902
-0.020076509957775 -0.020035640553624 0.170297027586680
-0.034176041567702 0.057690535341354 0.173800512535137
-0.029318224377976 -0.020714320355893 0.203996809868970
-0.040845598067379 0.054088523479186 0.208761329226996
0.023943553713530 0.025601860748638 0.150307623126642
0.015320797474717 0.023237214819562 0.217684344859271
-0.011843733151166 -0.032123351662905 0.096200385038148
-0.027390344404376 0.054215947951388 0.085787356247119
-0.018146703480275 -0.025618924068889 0.128142370119668
-0.032252840246428 0.055093883299823 0.118661218786257
0.025971061460213 0.013925320614454 0.059194722064511
0.025492187633794 0.021919210937538 0.124617418413476
-0.027009722276825 -0.051851852451998 0.021239017453634
-0.030256156562135 0.047817202856996 0.007653587170000
-0.024337936583219 -0.048285893734233 0.049446887548456
-0.030355784335218 0.053208111197166 0.035067737658275
-0.014298649548671 -0.007147054251883 -0.031507833667051
0.014298649548671 0.007147054251883 0.031507833667051
