ply
format ascii 1.0
element vertex 108
property double x
property double y
property double z
end_header
-0.139095537147332 -0.035866203715133 1.007172841824702
-0.143566801876649 0.048053331427451 1.002909656265378
-0.138356868922411 -0.030690138147379 1.018607703043283
-0.142542826577705 0.039516184322194 1.016378356670813
-0.118713528190142 0.003598794670670 0.986764406043209
-0.118871832564847 0.005372983894474 1.015521922306523
-0.141289989848879 -0.041456118482886 0.967120552168720
-0.152833380646877 0.039247041228085 0.960704991569846
-0.140576209021601 -0.036028613227594 0.983250151553196
-0.146791387583774 0.040975817365466 0.978600056760395
-0.124403762261801 -0.002213310678112 0.941549135946069
-0.118221424801674 0.002981997722872 0.975686435238266
-0.161420302547421 -0.045876068990256 0.923856761932211
-0.164355989184986 0.029031662494065 0.910637448645436
-0.154572163057537 -0.040456517439366 0.943565528297461
-0.157834977860012 0.029312351288113 0.932245867507150
-0.130762620645423 -0.013240480403327 0.895813026496173
-0.125403876447540 -0.004051386108239 0.935221322666725
-0.172730726777782 -0.052450960248275 0.884154691841014
-0.173212823892970 0.007623882240162 0.859340160392076
-0.166587644697444 -0.043595664966949 0.903465772986179
-0.166612275523978 0.015162198015227 0.882066459578898
-0.134257119159987 -0.034714456003541 0.850432524604366
-0.131702697191485 -0.016770898873253 0.888628778852538
-0.178140272055392 -0.073719165818483 0.841754006817647
-0.177030345434687 -0.017416175214232 0.813428299732012
-0.173152529682183 -0.062622721893640 0.856587922097970
-0.172279931337981 -0.009306732148900 0.833793374995960
-0.135834261771516 -0.058010086482860 0.804396740098300
-0.134680974633266 -0.038509655858712 0.842394151736430
-0.184877829396981 -0.098729204453037 0.793871680034833
-0.179419535608521 -0.043011709121197 0.763464924678154
-0.177933475740948 -0.086842008367997 0.814252662707584
-0.173547392620062 -0.033232244702614 0.787611088386237
-0.138575980650123 -0.082205255272902 0.761386955260426
-0.135707002501088 -0.063394231220607 0.801813069023289
-0.189081490458847 -0.118834886325045 0.742552583237145
-0.177752593108586 -0.060959371389241 0.722559536082310
-0.182915060407524 -0.108699301206153 0.766789573118074
-0.173219751312933 -0.053659410175117 0.746248233501739
-0.137552518493398 -0.106566682142052 0.712916310922995
-0.137042968269468 -0.089579622108848 0.757173031354171
-0.189115870987551 -0.137839108422970 0.681914567162845
-0.170641981373445 -0.080895459757715 0.664766123901620
-0.182665673288863 -0.133325509460547 0.709665298391568
-0.169198512310087 -0.075219850239311 0.690772941297487
-0.132801334683362 -0.124894326223610 0.657334798279313
-0.135177696301709 -0.111331207649794 0.703949407208936
-0.189569745280669 -0.147757121240809 0.618140225843169
-0.169986698759187 -0.084375590290134 0.614399162492152
-0.187282157266289 -0.146592288402621 0.648485660704621
-0.169896642299671 -0.085466017506499 0.640081674005317
-0.130201756199547 -0.133154633101464 0.598056865657707
-0.136206033309519 -0.127997553795831 0.645952020996008
-0.173334695170093 -0.150849316255311 0.553641327709606
-0.162372181364531 -0.089687125403827 0.556286319279844
-0.176534650050683 -0.151155918731442 0.582519175823386
-0.164801396631483 -0.093663464462469 0.585203422773413
-0.117060697101242 -0.126054540781823 0.539433959079250
-0.126585129836751 -0.130242551005995 0.590371534636765
-0.154633996694983 -0.141522699845407 0.484316070430856
-0.152368473796040 -0.073118789421708 0.504700131956925
-0.161832355749652 -0.147380731422831 0.518633482642085
-0.155052207603848 -0.085618933887900 0.535858640665121
-0.100467986863698 -0.105807488228352 0.483118909632842
-0.114742577124804 -0.121187130259078 0.531294497194080
-0.135483529064511 -0.114625837269875 0.415249949972936
-0.134484184592101 -0.047166878243323 0.446090823647283
-0.140102578753034 -0.127211163344499 0.448659613597930
-0.140969532532822 -0.064525196672310 0.475935944844757
-0.081450423068068 -0.076530158896718 0.425329346018798
-0.096429301025391 -0.099657735299161 0.470242375348671
-0.106636726055009 -0.080853382095719 0.351528718872974
-0.117596417578364 -0.014451239470157 0.382789342882845
-0.117658507786920 -0.096422373605428 0.384708751354757
-0.128099155955285 -0.032400184593749 0.416079957512922
-0.057377638697368 -0.037428465202297 0.365676306434763
-0.076422142459520 -0.065358026494503 0.415860845785211
-0.082487740064718 -0.048763007116972 0.288818634516471
-0.091877472967617 0.021908478774547 0.315454564273403
-0.097078169361906 -0.063035031666981 0.321015743076866
-0.103556589882664 0.005368109043389 0.349525668219289
-0.030739143229338 -0.003396103493981 0.296650467641071
-0.052645441149452 -0.030835613966597 0.354141895625605
-0.051600940161729 -0.025342939649433 0.225520745747568
-0.064771761508764 0.050455093585661 0.240267426850583
-0.063829375822714 -0.033728709799947 0.258226378247455
-0.076718482091262 0.039092585420025 0.273311989786427
-0.006605038363412 0.022818536500770 0.224227114212295
-0.024998364649062 0.004863433670544 0.286485889986778
-0.032460735375646 -0.016173601329795 0.159117833408677
-0.040601736687475 0.065920943509258 0.161260202174948
-0.042006463513263 -0.015865459427005 0.191194610118608
-0.047753399800173 0.062524711729722 0.193916059879546
0.011842424426392 0.028397162139695 0.143139867550054
-0.000107631580533 0.026828742945897 0.208208096976114
-0.021860499977027 -0.024712544432819 0.085545811121626
-0.025317025967350 0.062958573476280 0.072214889402118
-0.027596660277328 -0.021928747892216 0.120064888225106
-0.032339377240743 0.069660724004726 0.104495640144287
0.014665219775674 0.015660972252548 0.052082524134698
0.015352573778649 0.029487589356060 0.119251044665032
-0.028515441421282 -0.049093983848528 0.018604869165625
-0.027828600560527 0.048222411788765 -0.002602272480467
-0.028661943524939 -0.044522143244195 0.044500334699868
-0.030077702908446 0.056233844690178 0.021520543256631
-0.009567664967499 -0.007858388234458 -0.027891717053521
0.009567664967499 0.007858388234458 0.027891717053521
