ply
format ascii 1.0
element vertex 108
property double x
property double y
property double z
end_header
-0.023716540899502 -0.112876630042793 0.978264558300119
-0.024798617928472 -0.032906903387502 0.970021013212467
-0.018877304238642 -0.109417512062142 0.996049199973640
-0.019701799887890 -0.031431514881916 0.991231134385086
-0.000839080165725 -0.073727788837095 0.953711524810397
0.005079410714464 -0.071224897622261 0.984020972860099
-0.032880557164188 -0.108281331181724 0.940898321382580
-0.029424732461452 -0.043233211521783 0.929968637687580
-0.030109499033480 -0.108100200896440 0.954481210905785
-0.024806380654984 -0.042947402045654 0.944122675694772
-0.012951756334352 -0.079157698415290 0.911835379023423
-0.003297982596989 -0.073744725694939 0.945094192679477
-0.051300801475160 -0.115690265552249 0.899114857845479
-0.050693897402390 -0.056179557470991 0.889714196039240
-0.042723694381621 -0.111853361548006 0.914714409622891
-0.042289216931076 -0.051116377911961 0.905662364807290
-0.023288650004786 -0.085563359192651 0.867708042547919
-0.015082507144874 -0.080399734657237 0.902271935194565
-0.057490517315001 -0.119055760346481 0.846756208457433
-0.068221192930325 -0.069464405342956 0.837173945897637
-0.051524273905055 -0.113281703226246 0.863350565399087
-0.060455173140240 -0.065606330266407 0.855123957169280
-0.029557639748706 -0.099142720203805 0.820196863015519
-0.025278495567406 -0.088345002859512 0.858413236103210
-0.068850444246084 -0.136213267811472 0.801809316249554
-0.071039533122516 -0.087815961286001 0.784242501386648
-0.063389954230114 -0.127435505999301 0.818666900190212
-0.065887670293939 -0.080840563429474 0.802750488030621
-0.028324307169818 -0.119372150260386 0.772044670460524
-0.028302430395101 -0.102603484823413 0.810106965188654
-0.069089677363141 -0.160404981667174 0.753986921954257
-0.068996759879132 -0.110556750986337 0.732562502483076
-0.066771680179779 -0.150057502460587 0.772944676267662
-0.066811905217161 -0.103025965332984 0.751599765934696
-0.023711365748494 -0.145174512250295 0.728313703505414
-0.027784209591880 -0.125833091059879 0.763254441239105
-0.061180164749649 -0.183877349532748 0.708608375105474
-0.062353042155397 -0.134383146227694 0.681970226227754
-0.059680547127980 -0.173363795025628 0.726435594157743
-0.062387386339360 -0.124145050894687 0.702004411950847
-0.015770802228954 -0.171785844436426 0.680442850977951
-0.022442983283233 -0.152882429208607 0.721538254665110
-0.054004817876899 -0.205273070439248 0.655141067231008
-0.056885259881188 -0.157535125199038 0.635219088191137
-0.049817885477198 -0.195309963812082 0.673536141489349
-0.055601587197039 -0.147982502140470 0.657333449385355
-0.008503478808741 -0.196806052921700 0.630059227401911
-0.014040655153286 -0.178027782254622 0.670612651638038
-0.055427043467583 -0.221516222814760 0.598669113728059
-0.037363178873762 -0.172875684191908 0.583933341700728
-0.052354650407721 -0.214343933985788 0.621298872915858
-0.038131688798467 -0.169100646765626 0.606633906363683
-0.001021386621692 -0.211885031554524 0.570677662861718
-0.006870718665681 -0.201165176709489 0.620479787651755
-0.049834116632633 -0.227159960223245 0.534037123255998
-0.029482129590815 -0.176472884610821 0.528052296349251
-0.047409323151195 -0.225379002574044 0.557339181606578
-0.030645597631093 -0.170935473032139 0.550878005572948
0.008227549166354 -0.224051811574599 0.513870971182199
0.000624076164751 -0.211396215018394 0.564186847326860
-0.036247698597377 -0.227331681143060 0.466025759175639
-0.015657419375049 -0.173060107755106 0.470362770954575
-0.035732535837933 -0.232033776302205 0.496166544349304
-0.016802774386799 -0.175798233106672 0.497799774960638
0.021378548814519 -0.212505108738950 0.451782332196489
0.008707897273562 -0.217057359752997 0.501598335800593
-0.019533372245989 -0.208490602961474 0.400053169358340
-0.017411325098526 -0.151553591570205 0.423416623818607
-0.020702721139686 -0.219188581031793 0.423456143153578
-0.019821298829350 -0.163225674200733 0.448057164407194
0.031741788708267 -0.186131833499192 0.393014493519031
0.020153919898689 -0.206596262458368 0.438877152221210
-0.003938054683038 -0.178403921639257 0.334794515146023
0.003801854117870 -0.120760502135381 0.359559024124669
-0.008825514341928 -0.194948879412197 0.358541871717438
-0.001173583108158 -0.137925537092747 0.384246846774740
0.047586454456154 -0.141708807713815 0.329319205379439
0.035496595998790 -0.175032545991608 0.371277447880133
0.002789406393373 -0.120613480799923 0.268104225977554
0.018776153559847 -0.068224486208239 0.304292645572474
-0.001294493454439 -0.140722235744360 0.294151231469664
0.015828199358316 -0.087907937833463 0.329049156590470
0.057647183250064 -0.084125372914806 0.264878695494678
0.051595314614349 -0.125832150123332 0.315086599170579
0.022470740911367 -0.074866792527153 0.212851020537015
0.008259305774813 -0.021709052776628 0.244825220572374
0.017009545192987 -0.091225680097938 0.238594103524468
0.008125457551012 -0.041778288386093 0.273257029742678
0.057104262862486 -0.031479267411673 0.206001237709503
0.056546522724293 -0.072665941943884 0.255393349399216
0.016763255051828 -0.032862444135660 0.142221970983097
0.009033931787073 0.026554640759179 0.166551532042924
0.013257795946241 -0.044937718076547 0.168624885724084
0.011530471680214 0.010108951791940 0.195101193515732
0.048362727107371 0.002083703983176 0.129187647466752
0.057710461232845 -0.021065216944391 0.189264093646853
0.001305078990592 -0.035944717029265 0.077731120993076
-0.007088780710432 0.044622269099189 0.092700245284045
0.003470644453351 -0.040619525028549 0.099421119804628
-0.004634347727766 0.044161210191193 0.116084400348345
0.025472328496073 0.007917040105867 0.045824197920823
0.046053904055342 0.003224354312192 0.109375052300462
-0.043707678775573 -0.044980530689432 0.015788797640414
-0.028543545385252 0.039659534516544 0.010709622160087
-0.039474875719209 -0.043687683873951 0.037658750566566
-0.020984296401355 0.042388956205051 0.032773643249043
-0.020057003434356 -0.003258228027881 -0.026759647309342
0.020057003434356 0.003258228027881 0.026759647309342
