ply
format ascii 1.0
element vertex 108
property double x
property double y
property double z
end_header
-0.140599177890385 -0.032897174436082 0.954596506053967
-0.145409046391772 0.034615571461800 0.942394423722540
-0.140554504189133 -0.029351263585614 0.970212275349974
-0.145088371375319 0.039598486369184 0.960252607425034
-0.118804573569588 0.000862792948592 0.936671825290415
-0.121512724148890 0.005100889423045 0.968945493499550
-0.149536485594735 -0.043984468199503 0.912805285515033
-0.147657879433496 0.024802248420269 0.890389870794089
-0.149226337140071 -0.035762196460582 0.928118351973252
-0.145468868072183 0.029349979858567 0.911431697574261
-0.109224632105283 -0.011922871698607 0.898379017701193
-0.113226522803006 -0.000354693783211 0.932971096958024
-0.146505606035705 -0.053983931662915 0.863454709884482
-0.138146232248116 0.008457065415900 0.838929874879167
-0.148130290986958 -0.041268615257917 0.887354369817688
-0.140453346497794 0.019873506794287 0.865072462709679
-0.096588906777228 -0.023164726198541 0.847547791294112
-0.108263890782971 -0.005664445596876 0.887982369089301
-0.132934043690057 -0.070489580548215 0.820897361043629
-0.123766178607984 -0.009088659123245 0.793907513361800
-0.136716417062666 -0.059435406942618 0.845157491531759
-0.127179865572565 -0.001852803247585 0.817617951928212
-0.079381829433200 -0.043767775073894 0.805792515112507
-0.094453811951908 -0.029680411200581 0.845625024922441
-0.115980630810606 -0.096676328589159 0.775893741941155
-0.104802962663045 -0.033986031717730 0.746409869351539
-0.121486536117122 -0.085548982541857 0.799684541820737
-0.110640069547802 -0.025312401548925 0.773590478872619
-0.057379774821536 -0.071663163814994 0.766490441318579
-0.074556299461834 -0.056647922031784 0.804391198667510
-0.095886964827682 -0.115091906575656 0.730945836592540
-0.086750679430976 -0.058502907615350 0.713294846435504
-0.100566406661048 -0.106355117036117 0.757828364693202
-0.091205212285629 -0.052905857688466 0.739555537154382
-0.039304641248022 -0.098961362733621 0.723392643390751
-0.054970732644290 -0.086497913575333 0.764786935526613
-0.076706799011723 -0.132186529430327 0.686572270724955
-0.074142939352554 -0.074628830040015 0.676353803427248
-0.080085568600613 -0.128580796899448 0.711046526884600
-0.079177460087246 -0.072152263820073 0.702208836399131
-0.019832812646883 -0.112378877833574 0.678166169272839
-0.034899403511991 -0.106996210323614 0.721266021163944
-0.058373122810853 -0.144436623153328 0.629844629243524
-0.045493489343781 -0.083207721152717 0.637345959872597
-0.061727501585841 -0.143423505767480 0.660030443782686
-0.048946971846833 -0.085470675191963 0.658992422092117
0.002763607587752 -0.121309253411869 0.631746855982436
-0.012422369892770 -0.124730385993324 0.673036909482045
-0.031926548415505 -0.142571624498792 0.582244287069467
-0.025097634013887 -0.078878480057895 0.595408394450253
-0.035849618272514 -0.143532365821104 0.607156550897701
-0.032207941384306 -0.084091182106773 0.615277921690693
0.026722318965140 -0.117564108123636 0.583540081151163
0.008388642764270 -0.122500295366493 0.626588583960370
-0.015100224513751 -0.128871175957581 0.527316430908561
-0.006125175234206 -0.071916314788751 0.553132181832792
-0.020324223360647 -0.136018968157786 0.554741975550295
-0.011092685417020 -0.082422850435906 0.577449053056420
0.046939479490030 -0.092041303711634 0.538089211545357
0.032383298498988 -0.109947498805703 0.577581790433126
0.010110120734902 -0.104554304733953 0.475248461863967
0.007624311680218 -0.043203705409244 0.503964152188389
0.004971618109367 -0.113480058894877 0.504626041854054
0.003006745490539 -0.058442058953301 0.532844673065702
0.066009244779908 -0.063706366829486 0.488602560847776
0.049661751066853 -0.083766399163768 0.530984809319356
0.031418449250124 -0.072722752119960 0.421392517787683
0.022943796773674 -0.004359151935028 0.448745916969350
0.026962632668423 -0.086427822078542 0.450697695572294
0.020367099844032 -0.024218152613679 0.483557770296705
0.084391959353990 -0.029850633407073 0.432395342311382
0.070487911703053 -0.054584972666531 0.479139181799380
0.048271731419874 -0.044331074502315 0.362476891926577
0.040457428136633 0.022714651495704 0.382137941894512
0.042952993516877 -0.053793683314482 0.393849127002993
0.035660396905720 0.011862023036557 0.418823009729506
0.099152766436396 -0.000686665597681 0.357639038175555
0.088745334517305 -0.017710683464742 0.413756909309447
0.053717044809750 -0.025210473621358 0.293659109112257
0.048990361821037 0.042982390866263 0.307454039964161
0.049992439154277 -0.031856585291419 0.325023898571798
0.048172884437220 0.036664143084121 0.341375500211404
0.103892543440993 0.016599489332469 0.282045230513972
0.101609306514397 0.004582777186694 0.336594900686698
0.051325974811168 -0.018593374182569 0.226162024684354
0.047636543276795 0.054154153869407 0.229656329707515
0.053209459135188 -0.019429080490459 0.258746098093563
0.051967581589484 0.053489953495056 0.260958216541731
0.094921858833408 0.024007621377897 0.195803677230015
0.104021429636557 0.021233743973765 0.257439263959259
0.043289073257899 -0.023471023472062 0.154235568451928
0.032905775407300 0.054800895555912 0.149268058269113
0.048437845699814 -0.021583431221491 0.182139173046133
0.042114206264073 0.053389052549126 0.182910693001650
0.074123426701433 0.018552808407870 0.108131281778970
0.095381689861805 0.023218129243715 0.173021116573501
0.020688031605894 -0.036569404028019 0.081024358190413
0.008046914624239 0.045167294301024 0.077467407287337
0.029566544611472 -0.032308713957531 0.109626053553021
0.015627836330254 0.049505264739769 0.104665732241672
0.032779199920422 0.006468572219399 0.037314222460950
0.062872329366758 0.016102686965106 0.089332896386923
-0.025773901422484 -0.050733021287951 0.023725458172867
-0.028899776783026 0.050853178139592 0.015535536355542
-0.018195547170564 -0.046515977937076 0.047986872388044
-0.021385608883479 0.054094332188995 0.035135737661426
-0.019482098417519 -0.004262872406469 -0.023439957277514
0.019482098417519 0.004262872406469 0.023439957277514
