ply
format ascii 1.0
element vertex 108
property double x
property double y
property double z
end_header
-0.058888107142716 -0.003301500447322 0.966974938761273
-0.053695180383202 0.086114646620586 0.964319624641989
-0.053429310449321 0.003737412562226 0.980630133142083
-0.048293151217316 0.081769326751164 0.979113033989494
-0.034052313857759 0.040576933900201 0.940801983761840
-0.028890895680028 0.041907325175617 0.972664711587236
-0.073740888032753 -0.004112390725585 0.925250024838039
-0.065466109493135 0.078405460144034 0.919560252012075
-0.069124750600906 0.001210736785095 0.940422839174443
-0.061025743075363 0.083142163471461 0.935491615924774
-0.043640817976644 0.034471560276515 0.899456474827504
-0.037595076296992 0.040115242036565 0.926767384392130
-0.081171184500307 -0.010401347408416 0.882007751360715
-0.082621100065294 0.064971867441708 0.870628205708787
-0.079537425474673 -0.003389255753608 0.896422016120825
-0.077600819501827 0.071935003614078 0.885801020045191
-0.056009628935933 0.022241282916467 0.845583830820463
-0.048284297566236 0.033809880059088 0.885801020045191
-0.097090049140893 -0.021797819157995 0.835342239733728
-0.094236569478335 0.040892019718023 0.814489287426946
-0.092375219539662 -0.014211542190544 0.851662383089409
-0.088284832741024 0.049244918708341 0.831179461317441
-0.067080338406094 -0.003509040444681 0.798937328503146
-0.059280271805228 0.016570519400173 0.834972469600416
-0.113432066222770 -0.048763957133533 0.788316332427513
-0.108212318108516 0.008648064093211 0.766695456090353
-0.107302735660869 -0.041034198938297 0.804627101329110
-0.103563630488878 0.018846168129057 0.781868010025255
-0.076955023776042 -0.036007929140276 0.755695055025822
-0.071499612302178 -0.011869751480068 0.788695737416411
-0.122187285534191 -0.081405025049401 0.738236957104948
-0.115924108600092 -0.020188537873580 0.717763409787065
-0.119124703465260 -0.070200469207041 0.759099544267316
-0.112342806738514 -0.011705958935101 0.737478407528654
-0.082591414294028 -0.067980806801160 0.708280368276624
-0.079934798167232 -0.045682626156433 0.743949905664619
-0.128945485724225 -0.108902121688195 0.683379995419090
-0.116125919764399 -0.046729960998814 0.668940732114756
-0.127545306846184 -0.102328025360310 0.704483714372617
-0.115244460679004 -0.036929229655528 0.687788072050573
-0.082074777713400 -0.086829448744488 0.662276536867064
-0.083025763999918 -0.074532248198341 0.698418182178788
-0.129230364967777 -0.124497307261382 0.624512069392805
-0.112610499482911 -0.058865712613515 0.616865118875311
-0.130912037869840 -0.122013858133638 0.646726400753781
-0.114394770576893 -0.057635315514994 0.638951332697139
-0.076003516686520 -0.096679395971715 0.608406496875046
-0.082401060795823 -0.095782052394678 0.650245206254799
-0.117543805944599 -0.128225996373281 0.563002109723855
-0.102142879892152 -0.056448926270368 0.567310192178443
-0.124977487631683 -0.128096056023617 0.586747601918546
-0.107784478440184 -0.059274282570675 0.590635135946867
-0.062050422987041 -0.092051800873765 0.558424511714353
-0.075663432324473 -0.099842232619045 0.596744155191586
-0.098780054891031 -0.122424250901314 0.506863191442015
-0.088827769873388 -0.048186907404364 0.519759836246531
-0.108129250029272 -0.124993111721823 0.527879675892261
-0.096412744833327 -0.060685919114819 0.541208326789147
-0.044389732697352 -0.082000302883733 0.502621250969019
-0.058627445238881 -0.096004956080674 0.544036287104477
-0.070458266694350 -0.098301697331246 0.451862227725366
-0.064793232011108 -0.030444711444446 0.473862509051425
-0.079406443519000 -0.105780168076732 0.474241914040323
-0.073761199349935 -0.041836235565481 0.496779664067196
-0.013121501501780 -0.054384463159876 0.450684952533322
-0.039980614459860 -0.079210881990748 0.493966286235996
-0.037817979982989 -0.066230908705486 0.395723049042023
-0.032040451850739 0.004225144576095 0.418102995758482
-0.043161158409348 -0.077233132580533 0.418861545334777
-0.042763004512282 -0.015351059164751 0.442000041627530
0.020453366201452 -0.021504607066369 0.399516317726500
-0.006416683619725 -0.047744745653404 0.441241231649733
-0.002398167635731 -0.033494533839763 0.337667836104518
-0.008625929965513 0.039164516151550 0.364546999978277
-0.019024803559657 -0.046182857442414 0.360825862509946
-0.024335692199727 0.028426339399867 0.388136772074572
0.046929949352605 0.008075441189582 0.338339671980536
0.028280254157059 -0.015308613719870 0.387394627792925
0.010233388439411 -0.009894085281872 0.277755439652378
0.005879475320413 0.067708687231222 0.295962712695462
0.006810671092754 -0.018956838767548 0.303169845075517
-0.000488122616122 0.059472708515452 0.320997713129702
0.062749080217799 0.035484782522090 0.269797569741099
0.051218501694518 0.017719931631469 0.323556157890119
0.025911121288838 0.000195170925998 0.212728236891424
0.021185615226011 0.082558603704734 0.217432129629557
0.023798483900415 0.000884974505677 0.241720298555108
0.018796952245116 0.082573706991869 0.244262077619375
0.070852254167379 0.043599153736271 0.190133198534038
0.065631985250121 0.042093512249785 0.247671254087911
0.024730981680267 -0.007997060337380 0.144994420915227
0.018874031089806 0.083316892879526 0.138138049358814
0.027472228295321 0.001716436502624 0.169721366372208
0.021658504354247 0.081812553400552 0.164345377356555
0.065873637844285 0.040914935050228 0.108569458768965
0.071566014685273 0.050553175856059 0.166377290279255
0.008473334685146 -0.028146668186362 0.079751866111844
-0.001659929376618 0.073710160655478 0.064891793979741
0.018745913550659 -0.012626738647349 0.101373002850506
0.006688542788160 0.069202350248601 0.089993457198579
0.036520138895364 0.015233618087199 0.043388358720133
0.058264705946132 0.025175747446251 0.082363432778736
-0.036615445845218 -0.058306109785003 0.019196798751947
-0.041593280963804 0.057253566912575 0.006164484764716
-0.020023182919599 -0.040942016806471 0.032636641090329
-0.026673837289170 0.046197179525042 0.027026811525581
-0.020831729584341 -0.006984098493307 -0.021479217919891
0.020831729584341 0.006984098493307 0.021479217919891
