ply
format ascii 1.0
element vertex 108
property double x
property double y
property double z
end_header
0.005333485996071 -0.059104600652990 0.942459409304732
0.003467861721520 0.015597661589163 0.943756242527693
0.010123469188400 -0.058065837241398 0.959651008608237
0.008554300988617 0.014191375642184 0.960764728980116
0.025844978350355 -0.020989894130234 0.920355665119297
0.033307475448562 -0.021242776608712 0.953412722072506
-0.009270931027625 -0.058572120931642 0.905912314781892
-0.008204156018418 0.021994421144740 0.914042162256634
-0.003600916810196 -0.057061310226893 0.923121032283939
-0.000632465562838 0.019208304648531 0.929905026239893
0.007299485162080 -0.014922270846645 0.882242255429765
0.024089844266400 -0.017517493492434 0.912944263250075
-0.038212617431089 -0.054483205779646 0.871901047943229
-0.040633545691713 0.016779595388569 0.869707843596558
-0.025616216969825 -0.051666743386020 0.890262909547133
-0.027552648338350 0.015670284249649 0.892651157610538
-0.016205098270798 -0.010846583393523 0.837037242943792
0.000209957298797 -0.014459560752692 0.873551657269414
-0.061073712218734 -0.055443121731282 0.821870519034619
-0.069097738102483 0.013293188951961 0.817519384204940
-0.049470945372902 -0.049463423740209 0.845548359386085
-0.053043461535515 0.013358808713043 0.841649819351220
-0.034501858846909 -0.017006281835943 0.792121942999829
-0.019236056879502 -0.013967282861256 0.830306419149980
-0.075921933888348 -0.062653773817590 0.782258488872632
-0.085242014895123 -0.005295099732672 0.755132628347959
-0.068923703083961 -0.051832478671914 0.797644636963131
-0.076004931214617 0.005685705899428 0.779248538962140
-0.047668347192987 -0.042873695401056 0.744110842786014
-0.037552529320602 -0.024209152922913 0.781219984827685
-0.096800430044730 -0.086760606599211 0.733501190822326
-0.094139328271214 -0.033709493747680 0.704031433930472
-0.086609914578702 -0.072295469463660 0.752051352610204
-0.084890832458345 -0.025258031633643 0.724935607384669
-0.054030351618189 -0.075636630579296 0.705005874414205
-0.044923469993268 -0.049429706076412 0.737502440048449
-0.107205441725834 -0.114805921878964 0.694433052514049
-0.096007805578856 -0.071086561533215 0.659222993044081
-0.096086912405456 -0.101443611716219 0.715080193623455
-0.086521211186252 -0.057504567822501 0.681350080227530
-0.063845304182846 -0.115037536292585 0.661824959222630
-0.054341332225055 -0.088745280163630 0.703102123242898
-0.113443987628210 -0.155170374676912 0.645350508691423
-0.099237957770607 -0.102499752692998 0.620678515991236
-0.099428332887738 -0.136707619448262 0.670702042000442
-0.093201458484368 -0.089523120730762 0.644088171232193
-0.064878880261546 -0.147246464317976 0.616862973282641
-0.057098399657070 -0.123803091413222 0.659675328472250
-0.120344437207585 -0.175568005074220 0.589726997458827
-0.087195305095547 -0.122943809719688 0.574551714450383
-0.111649170447632 -0.169535915020940 0.615036772738067
-0.085771382216736 -0.120440662232729 0.597004047406151
-0.064320463875739 -0.173975493876424 0.567304491667188
-0.059942354915023 -0.162862929988872 0.611550625668103
-0.116758693346098 -0.180210927379065 0.524682511594709
-0.096073165973293 -0.122362569069157 0.528925749900237
-0.109147060427251 -0.181624734958737 0.550179030858055
-0.093116645591587 -0.123599747963862 0.555198294164203
-0.057895692722546 -0.168244009764226 0.509342530766949
-0.057735144769543 -0.171127388752157 0.559173347359223
-0.106943222048152 -0.160763616367543 0.457093379580497
-0.081151543543260 -0.109301124214139 0.485996679720561
-0.102240386048406 -0.173525233381412 0.486536162341313
-0.080110445831867 -0.126242694072256 0.512638821453071
-0.044749953708035 -0.136525025330469 0.455793174591157
-0.050887346619020 -0.158749893738929 0.498902245222179
-0.088645942738751 -0.124012400295408 0.400732229610681
-0.089109949665927 -0.075574123217949 0.442159826284813
-0.088844617588509 -0.145510523365721 0.427696764082418
-0.087265074722942 -0.095510859087817 0.469169490552709
-0.036686244727664 -0.089066635436280 0.408782451525533
-0.043327587029092 -0.124858454290068 0.448017103219638
-0.078218106792922 -0.072100166380282 0.344224796853314
-0.084479995693311 -0.025861577815609 0.392759298955917
-0.080537363328866 -0.096714579685369 0.375435941396961
-0.086913373552875 -0.049282904555573 0.419353198492532
-0.027111725042544 -0.031292974720014 0.357520449788400
-0.034891168180442 -0.069302897118355 0.404098030557554
-0.062748961376155 -0.026148177957884 0.296684447099434
-0.077167671882324 0.027605818500492 0.332869465786424
-0.071504141831009 -0.045361540255984 0.324565583293160
-0.079109031217096 0.007495566345392 0.359128782351515
-0.018275103461288 0.020709000054141 0.302610974928365
-0.027056998680535 -0.018010030750515 0.358215811762551
-0.044512633228234 -0.000709238089637 0.233907344442341
-0.062011063272290 0.073133223725692 0.248515651965707
-0.053310868546090 -0.009933612804558 0.262421853982162
-0.065903378507685 0.059704256335287 0.284411476843977
-0.004746798646004 0.045274133696756 0.228135139766942
-0.014538667579293 0.026167111722939 0.291572330534522
-0.031728451316285 -0.002374371947919 0.166872219580978
-0.047911373738970 0.082833276866796 0.156809831237379
-0.041189109044429 -0.001258576642884 0.198535440186147
-0.054672802796843 0.078631796591047 0.191818103457854
0.008743898005814 0.041634700939839 0.142635962843706
-0.001525724286814 0.044321480011169 0.211673398201321
-0.027456423313207 -0.021681365604717 0.098564382594601
-0.036004110452387 0.063321902294059 0.072001607055337
-0.034254941801257 -0.010233181279062 0.129314632610806
-0.043307615797458 0.070166588044847 0.105280163123026
0.010608484813787 0.014948726244393 0.055950183521460
0.010626899845553 0.035552034390863 0.121948879271032
-0.032027501057499 -0.057467478392324 0.019309198273277
-0.036269961263094 0.049204575828906 -0.006354871842476
-0.035579267888545 -0.047669384659565 0.047811517580801
-0.039582073314536 0.057520389187821 0.017406225201904
-0.008852572629898 -0.009483871042836 -0.029582970432218
0.008852572629898 0.009483871042836 0.029582970432218
