ply
format ascii 1.0
element vertex 108
property double x
property double y
property double z
end_header
-0.236496988559464 -0.080417352917813 0.974727313849463
-0.240000492676101 0.001918159557219 0.975072516502269
-0.237308517602903 -0.076815022842358 0.990791900141173
-0.238529665105174 -0.004698499902787 0.990683164058351
-0.212828584344460 -0.043570961308487 0.952261613294834
-0.214503120019914 -0.042013970714969 0.985639461502759
-0.239470851604331 -0.084747801826340 0.935060390836108
-0.247351877718515 -0.004947904690221 0.928797192465578
-0.241091156878986 -0.080754847696394 0.950247655872242
-0.248133125827497 -0.008176402865747 0.947451624497001
-0.217434865037765 -0.045247148671275 0.907368200994257
-0.218243090706536 -0.045093817030435 0.946859494587763
-0.246450606996595 -0.089909049463869 0.895098091071190
-0.255706662816333 -0.020145905694026 0.875958338244793
-0.244354065207304 -0.081680618447101 0.910663592506810
-0.254208031841950 -0.010936922963306 0.896693621035834
-0.214830979955713 -0.053719754132253 0.858357407451240
-0.217295572739264 -0.045761649275816 0.899037640644003
-0.250760409813447 -0.101144652553407 0.845750628593259
-0.251791337991085 -0.039214085402616 0.823019006377855
-0.250366207103065 -0.089439144417346 0.862234468186583
-0.250407774567638 -0.031828840769855 0.842048921996541
-0.206141452891537 -0.077986895005832 0.811844240438453
-0.213789866372848 -0.058974597385375 0.850796258117408
-0.248292788936450 -0.119562342733624 0.805674637683517
-0.243787811732964 -0.062519944247807 0.772651076408735
-0.246494376710946 -0.107444188045285 0.822768775746754
-0.243653749777688 -0.053963928576462 0.791817531513698
-0.199239326803971 -0.102836255664646 0.766991294477560
-0.204911221108929 -0.081350556261524 0.804406692373449
-0.243770193734735 -0.143332601000891 0.757614940763662
-0.231444477004756 -0.090363814043164 0.726300050035903
-0.241461960685469 -0.132437520783379 0.776988132066597
-0.230866937000301 -0.080457268695052 0.745822443761343
-0.191409227715920 -0.134867703414139 0.725293897168274
-0.196309233473454 -0.112443570324082 0.764649477119170
-0.236480471686124 -0.170943582882154 0.705229749997281
-0.220677953118075 -0.116894041845546 0.683732764064044
-0.233497524360919 -0.161530341484463 0.724903548395005
-0.220217132351888 -0.106760940051453 0.703563472758498
-0.181333934978517 -0.165059171473555 0.682635768393045
-0.186506744427384 -0.143121185022139 0.725810324741371
-0.230532470315166 -0.192326602389346 0.650258016865857
-0.210116513742031 -0.138600241507757 0.633046609001905
-0.225497301477465 -0.184892082417788 0.673762353472350
-0.204814597399890 -0.133555988389720 0.656307046445411
-0.172301407511313 -0.184713424904493 0.632938423481528
-0.177173059302948 -0.170262812419323 0.682007026081235
-0.214797395646588 -0.205912831836389 0.585678418512551
-0.193137718510951 -0.150144159566309 0.584233742657745
-0.215395581742719 -0.201091556508442 0.617095989136240
-0.197202796321149 -0.149262709092397 0.613300962205152
-0.154982639970652 -0.196284871085278 0.581237857115091
-0.166750912225405 -0.188476794495013 0.631606337646657
-0.194484394250606 -0.209371740395008 0.526594809763132
-0.177255093107203 -0.152726847994241 0.537427401143174
-0.199873299459005 -0.210444511318441 0.556340046961146
-0.182326323785029 -0.151755380560626 0.564065539184711
-0.138499626220994 -0.194549773540910 0.525752999785237
-0.152596227054243 -0.196093000073312 0.575545591999681
-0.170100809419980 -0.196802675064487 0.459073280986750
-0.159847134450505 -0.136133171193205 0.486660313401670
-0.182350548532594 -0.207482485366134 0.489989564504570
-0.167070238443312 -0.147404836122869 0.514260008752817
-0.118075411211190 -0.177643377271304 0.470481210121468
-0.136631843127462 -0.194291009191917 0.517815265739253
-0.150448758238821 -0.173937266175030 0.398753384267831
-0.133310850461232 -0.116589856094868 0.436327068866563
-0.159406409213550 -0.186855112814247 0.429288678573942
-0.146576377284257 -0.132223902554849 0.465850154118153
-0.091591981216604 -0.157393415275237 0.417814406664641
-0.113272304443916 -0.179215233050828 0.462222222889021
-0.120600015301209 -0.144631102526638 0.344727792697566
-0.107786500245256 -0.076354752638617 0.383456557305208
-0.136246174134973 -0.157093358742893 0.369847754797935
-0.121063588879619 -0.094593234743094 0.414211801307964
-0.061937036259516 -0.120896080255829 0.363796247687379
-0.084116719624141 -0.147122948151200 0.406607432822226
-0.092969763734383 -0.106714692806101 0.287692551523530
-0.081257373567764 -0.041909088569260 0.326081894384036
-0.108065084842258 -0.120118686083959 0.320165550353646
-0.095260929347864 -0.062021409954161 0.356373564808381
-0.032786406501742 -0.081465073250014 0.300351909094977
-0.056636496323486 -0.106544569010699 0.352018891152289
-0.066931463476311 -0.074376031212484 0.231835789262304
-0.052334126099637 -0.001721333483251 0.257451532844094
-0.080023287848043 -0.082794956835107 0.263813832454663
-0.065048264634328 -0.013579072135262 0.288458659165284
-0.003851872503500 -0.046584464849371 0.227856048631030
-0.027929344614892 -0.064051058406425 0.291649168532129
-0.039555296477698 -0.052353533425812 0.157357353435111
-0.036257702715366 0.029748265291460 0.183374181757841
-0.049996713240804 -0.062544168995372 0.186398145985174
-0.044695898023552 0.017364739504791 0.215019409952401
0.012442298327636 -0.010961147710872 0.150315659767823
0.001275790824904 -0.030231659117877 0.211894142235249
-0.033440199404784 -0.042027459494863 0.090617348048933
-0.022258000872379 0.053152124251801 0.101271006634458
-0.035273847626747 -0.043845141405931 0.117837155313260
-0.030547269039282 0.051205060166237 0.125419501301212
0.014289710610716 0.006562704340428 0.056027987181518
0.015022509224567 0.003638667196803 0.126524480127658
-0.043096514121795 -0.054285181762925 0.015139090822226
-0.035074544021777 0.057097730011506 0.019904484062040
-0.042755440687324 -0.045741829027808 0.040595446576285
-0.032736030038055 0.057231791966782 0.044658046855482
-0.009977705544085 -0.002983497887649 -0.030562271865900
0.009977705544085 0.002983497887649 0.030562271865900
