ply
format ascii 1.0
element vertex 108
property double x
property double y
property double z
end_header
-0.087690853622760 -0.125888708864919 0.964155460257672
-0.091336285365358 -0.047919623928505 0.964648818256115
-0.084971249489627 -0.121238271457732 0.979557907126929
-0.088320342312467 -0.051227275605534 0.981500547654819
-0.066202346188951 -0.082779267542535 0.942408350813418
-0.064322214651949 -0.085123817730347 0.974678501601272
-0.097974277167961 -0.113670516294385 0.923592218497404
-0.096586577570277 -0.050754059393044 0.926689886268011
-0.096249260534270 -0.115923386628897 0.941648750816754
-0.092534374357353 -0.051497916384595 0.948367772792728
-0.072141394867528 -0.078208471220033 0.890492781763787
-0.065542297548144 -0.083234657116883 0.933577682519379
-0.118495284331712 -0.109949610733161 0.871645163437550
-0.118179266655563 -0.049856245072086 0.871334933630927
-0.108093093703827 -0.109721105644253 0.896091966743766
-0.107527734608474 -0.048865593323923 0.898385352164963
-0.087350295379818 -0.075132334324065 0.839784330782613
-0.078349232206918 -0.077856568752819 0.882576133825381
-0.132871657691304 -0.108781850177485 0.826090694512372
-0.133048998013597 -0.048348620817812 0.823685255937141
-0.122940136613317 -0.103804282384658 0.851110033872154
-0.120329575942065 -0.047515862150333 0.848690472895277
-0.099869457165732 -0.077707473233815 0.790335551725195
-0.091338368998388 -0.074987869100683 0.833593857051803
-0.147351286643249 -0.114741966701139 0.776347660168225
-0.145359101952213 -0.050035900542190 0.763099689851528
-0.137751294731742 -0.109262706377751 0.801477895108135
-0.134066968505926 -0.047567952976072 0.789194646884123
-0.109693786900088 -0.090398882016839 0.743658236111868
-0.101179599311761 -0.079755221472306 0.785939549062395
-0.163997893945932 -0.122662087361262 0.723236780303973
-0.153336869792820 -0.071056516603473 0.707131917588974
-0.153410954522759 -0.113221840648688 0.749136107346570
-0.143037240212944 -0.063462600269866 0.733869096624234
-0.119283823676009 -0.115327930612006 0.693416287414533
-0.111324113988325 -0.098112028462692 0.737073029679347
-0.175315262503355 -0.138872289301643 0.678031667183417
-0.157947718172445 -0.095298660843230 0.653949499657374
-0.166216268578066 -0.127710961706656 0.701038448551429
-0.149409453046888 -0.086033439305139 0.679887721183190
-0.126956918064738 -0.142934910679715 0.646732257872555
-0.120529836227683 -0.122677135822031 0.688237996306525
-0.186594431121902 -0.168639070761877 0.626746281367837
-0.160647412034407 -0.123402008601535 0.605677510232093
-0.174830239037031 -0.153428086616558 0.651678339655158
-0.153570468206911 -0.115391828691580 0.628800743534979
-0.134079933333665 -0.175482647690063 0.598958951285681
-0.128230712390140 -0.153199813042431 0.641177292215759
-0.193082169831596 -0.185968878183474 0.575001801741411
-0.160582587895709 -0.142933058561467 0.556971199077541
-0.184032951584235 -0.178975742706722 0.599360629430824
-0.158857802776799 -0.137991838589266 0.578577084505348
-0.140015509290526 -0.194955818954729 0.546628739263169
-0.135080077187852 -0.179777478393539 0.591623405447740
-0.199124242587745 -0.203482508341233 0.515885428456417
-0.170953987057714 -0.153533425841941 0.506308588023017
-0.192028314548203 -0.198434560054963 0.540867262421666
-0.167235859673862 -0.153002562448966 0.532898292142740
-0.142839758104699 -0.205338099311443 0.488511583773237
-0.140892024251626 -0.196434966890932 0.536668973381893
-0.198541056854251 -0.206936014330331 0.443409031700693
-0.170512488370229 -0.153249125690797 0.444417741601779
-0.192530470108326 -0.208002139897120 0.478073276839507
-0.169337087826778 -0.157527750359599 0.477575983089785
-0.138074257851324 -0.206595456087389 0.427331024700297
-0.142322322569026 -0.205738619882680 0.482374358442072
-0.185266230822951 -0.198623476116309 0.384700587459929
-0.150067649569447 -0.143745443928212 0.398012455856199
-0.185002767002103 -0.204810708640184 0.414760929662549
-0.155971739516083 -0.153081045959746 0.429918433893443
-0.125533102161208 -0.192028314548203 0.370710149240367
-0.136522877303429 -0.198652183949161 0.422731983574505
-0.154159673324713 -0.172796613200184 0.309580523419260
-0.121754780934281 -0.119382912002303 0.339166954865047
-0.171233888428017 -0.181558984633809 0.343245087733450
-0.140009489906219 -0.132180817584616 0.371468823177907
-0.090117360043068 -0.172348632098830 0.314950740280769
-0.114158549452864 -0.187193128345728 0.362582128306852
-0.117522690736472 -0.138900071075371 0.246534881270086
-0.101010825036367 -0.090130556385589 0.284395187961457
-0.133947969908460 -0.150084550148464 0.273122038727218
-0.115872684891845 -0.103635276594483 0.313403526998933
-0.056370839496383 -0.134337146255425 0.254171859352970
-0.083277487351380 -0.158612628623655 0.303117788305921
-0.066582030429892 -0.112623374939643 0.190819228604108
-0.059025387976037 -0.046635411437955 0.223923295633347
-0.085945463688335 -0.122758860539746 0.214630755351090
-0.076984684087340 -0.060292005343226 0.251707847538130
-0.013629275161105 -0.087583430764347 0.196425822057080
-0.044743704161900 -0.109961417986995 0.245697955336548
-0.031371873437335 -0.078466841715697 0.132264047148407
-0.029479703131717 -0.006456252699469 0.161381892677325
-0.046114966210128 -0.085822760854373 0.158869262758462
-0.042912190728920 -0.017847705986832 0.187531255683469
0.016524367498283 -0.044730507819379 0.137776414085488
-0.004781011743706 -0.063210249158509 0.189461857442743
-0.023355211113510 -0.061784118107169 0.065574593860103
-0.012903244807696 0.028591843946345 0.086018043572198
-0.027647958183957 -0.066539200195396 0.095436296380572
-0.018560539997721 0.020695569308672 0.115137741219364
0.017505295625641 -0.013961267357148 0.049372031907496
0.020240642763886 -0.029935092706066 0.111136239743493
-0.028062601156838 -0.055111399087407 0.001106524896085
-0.026737179035260 0.044862008215022 0.027709888387891
-0.028299903807426 -0.061740361813548 0.021158714628187
-0.027897068088379 0.040726459680916 0.046557043684566
-0.012844903082868 0.007857611669236 -0.025316951610836
0.012844903082868 -0.007857611669236 0.025316951610836
