ply
format ascii 1.0
element vertex 108
property double x
property double y
property double z
end_header
-0.150816944358108 -0.006793766849643 0.952237268400343
-0.153613662358401 0.064403831023194 0.944803677617943
-0.152789294167352 -0.006452439288821 0.962709494083232
-0.152613210390816 0.063196626032710 0.956530434111135
-0.124935801888013 0.022415253240956 0.928525710720417
-0.128852211770631 0.025963896557266 0.958777749577432
-0.158983424372576 -0.012057772841875 0.912037553729278
-0.160127440139949 0.055963442911892 0.905206772271955
-0.154153546850422 -0.005580216497843 0.927762152241985
-0.159217673961181 0.054201018806205 0.920798118197013
-0.129239014420889 0.014476677453775 0.886829283948797
-0.124648409898381 0.020358827394267 0.917619620957505
-0.164088267551784 -0.020341113260591 0.872164096385908
-0.170006110149681 0.047704690768278 0.859782181336776
-0.159752270652105 -0.013750397973079 0.885518438056809
-0.164676799813899 0.048784724142375 0.875997487791301
-0.135165581890596 0.003528020892031 0.843624247524156
-0.129997285098223 0.013016451180792 0.875702428490079
-0.169013854273797 -0.030161353068199 0.828162452725978
-0.174764866747078 0.023224815588932 0.808868588472681
-0.167213358000211 -0.023565085589535 0.844705338458472
-0.172194731023799 0.030510347940612 0.824168312167231
-0.145590481753666 -0.018836733848446 0.797400934233250
-0.139894462411795 -0.001250300569426 0.829627438019948
-0.177386822921110 -0.048384966379429 0.784054788654049
-0.183005111586852 -0.002162446258687 0.758852864234885
-0.176914622283132 -0.040080210366269 0.799942251440549
-0.179040318324195 0.005024468602530 0.776706860249422
-0.154801038094770 -0.039118094956640 0.750958441586866
-0.149014861744193 -0.022255032867712 0.784561095609103
-0.192256912776515 -0.076505757004230 0.733327326388574
-0.183059840328208 -0.024012433562356 0.711862819784890
-0.190479154047646 -0.067897216818039 0.749845623845967
-0.179833488488770 -0.016695967574257 0.731238909345247
-0.155826078337457 -0.060421323626861 0.704859920401853
-0.154962844808344 -0.046111211907646 0.738345449629788
-0.199739151329009 -0.097099098377156 0.678704341054815
-0.190578564708273 -0.046111211907646 0.661880408694006
-0.197277151138167 -0.089854546483980 0.699344743857506
-0.189706341917295 -0.040955341447851 0.682016090881972
-0.155149504187074 -0.084370303576050 0.651825654907738
-0.156030187459807 -0.066026921569970 0.691279260843993
-0.200720038432534 -0.104764030457558 0.616973229096185
-0.189903576898219 -0.055517681279401 0.610453634733430
-0.200916744633349 -0.103563699608501 0.638228603166477
-0.191598052759807 -0.053545860250266 0.630253012771616
-0.148486874804640 -0.088471522107015 0.599244553967651
-0.155382167435349 -0.084722999909232 0.638973918731123
-0.180949478910328 -0.097193221236686 0.551347122849381
-0.171766154744874 -0.041170026172396 0.561214688476809
-0.186101912299409 -0.101281484654963 0.570997649286682
-0.179404119039680 -0.049793636591715 0.582750580395305
-0.134896961594860 -0.077206655039660 0.544205418687544
-0.145961685390687 -0.087135559159815 0.583347044359066
-0.153668391099757 -0.074638370046765 0.490641844303602
-0.160192480093444 -0.024839974434063 0.517815060971791
-0.165703690786969 -0.087878495213967 0.514198469411382
-0.167158100478745 -0.039708213559084 0.538611718296903
-0.120294698865027 -0.045521093305202 0.491622731407127
-0.131687795108988 -0.072002929979936 0.531258237701125
-0.140154093445666 -0.037599174091478 0.435252920980918
-0.155854368073326 0.007021406686876 0.469652446628498
-0.143966069256615 -0.049682592768674 0.456188383084831
-0.164417697560137 -0.010382333064237 0.488834738278645
-0.101107383803838 -0.007757468599602 0.442731193682590
-0.118046061448456 -0.039937175346591 0.483282811516672
-0.114578850269042 0.004679703970995 0.389192736353859
-0.146141470627991 0.053884015130430 0.429927047715849
-0.124791180528005 -0.013601281982139 0.411073392903891
-0.150892031133688 0.032477938728869 0.450232468319034
-0.076948742541146 0.039816877871630 0.397810530191971
-0.097397726944119 0.004826969231551 0.436171412031496
-0.092156722886660 0.044198614250800 0.334288175611676
-0.108851104120588 0.091266389376924 0.356844348751871
-0.100600812458729 0.036602687974716 0.358530364131703
-0.120470518251508 0.078096327574259 0.382076413637289
-0.050288971359492 0.083242151211969 0.340602338901806
-0.070594920742787 0.059530329141988 0.384185717494950
-0.068967335565078 0.056480589859195 0.282636934494525
-0.079831122919213 0.123535724352510 0.283111779033051
-0.078147751439929 0.055139339110898 0.307895702775484
-0.090509308454837 0.112490301030687 0.307931395432890
-0.022939406524713 0.115190781051012 0.276213578111739
-0.044800762600740 0.095941598716986 0.325341216155265
-0.037767458361395 0.063461809257733 0.223827861422192
-0.045919925702956 0.130113220137278 0.208042717586922
-0.051379051555673 0.069868244677009 0.245780167677090
-0.058714818017777 0.132354190242259 0.233356478999291
0.014195763020488 0.108115703182999 0.200813235926872
-0.010336196999664 0.120188281867946 0.254571401391189
-0.015387633387790 0.041275782194339 0.157919122206744
-0.022880183152424 0.111388852062147 0.133101620927344
-0.017791996546673 0.053692067950603 0.185588070227792
-0.026655408745748 0.120551818193377 0.161621904925036
0.031055388038703 0.073319063673021 0.126423921311783
0.021556646537803 0.098344111145485 0.181997124502704
-0.005284231831429 0.007479594651946 0.092898733575620
-0.021578590912356 0.079998085238856 0.069983783130982
-0.001341118553270 0.022330384033346 0.117475904295153
-0.016786521168046 0.085247814168126 0.093164709970808
0.022621345288718 0.030480207474359 0.049646900111268
0.032271053510942 0.060844612104689 0.107970024262772
-0.032806972152140 -0.037085199824833 0.027399005775038
-0.064306138897923 0.049687880569771 0.000524814258894
-0.017095064362066 -0.018395995626997 0.045569741075296
-0.048193944564794 0.048040201747893 0.022531849255148
-0.016236325463886 -0.011432754752190 -0.027615805620022
0.016236325463886 0.011432754752190 0.027615805620022
