ply
format ascii 1.0
element vertex 108
property double x
property double y
property double z
end_header
-0.059360233859283 -0.040439031552613 0.989892905842257
-0.064124547095899 0.031751655385197 0.979288578470018
-0.051875369798423 -0.036608131958446 1.004799112867300
-0.056259711384004 0.033251446224203 0.994614255718938
-0.045360877108988 -0.006635413758928 0.961777082537975
-0.034453265373341 -0.001714492145776 0.989432551130700
-0.089854748994781 -0.047576261975292 0.939416963550090
-0.084539996582229 0.019454895011664 0.934788700953267
-0.078875993630854 -0.041433656433679 0.957089456588985
-0.071494611211127 0.022505293567019 0.955137857513247
-0.072693196558979 -0.015326023727629 0.915938411289069
-0.052676659559783 -0.009807541834097 0.951302107217153
-0.115141920117564 -0.051556840371811 0.901361128051913
-0.121810942311279 0.011767456398855 0.887577050072904
-0.098895302459724 -0.049425996310540 0.919955023471340
-0.107412442088044 0.015891938952574 0.912857291621503
-0.092742071571029 -0.022723344167977 0.867018389386791
-0.074180745150263 -0.013601483699288 0.906689970598637
-0.137109825206691 -0.067602500378344 0.852032723244450
-0.141699282188090 -0.016659735772050 0.827110047723693
-0.124660845186939 -0.055416382205934 0.874805151896224
-0.129291648627629 -0.004979707500804 0.854933442997452
-0.105242099453930 -0.046496865303388 0.821413475773658
-0.093731845750167 -0.027364310984136 0.861649817281418
-0.152274967320372 -0.085295782139788 0.809863723497053
-0.148631166229147 -0.035624132424461 0.782042176109742
-0.143404188422913 -0.072009478572924 0.833611605207986
-0.139067660899194 -0.023582611366669 0.806339804039193
-0.112131713092470 -0.066157222189578 0.777142967162364
-0.106893878953350 -0.046280893574684 0.813781935725925
-0.162222140074257 -0.109106953961593 0.766148504763623
-0.154629867613560 -0.061212971010010 0.741118189857223
-0.155002216732993 -0.098454350555879 0.787377486259037
-0.147710225820226 -0.049967427040038 0.765642183876652
-0.116148787246353 -0.103556596026819 0.736131899260945
-0.112943628200911 -0.080121700083151 0.776792330708705
-0.165968729849196 -0.136600501504241 0.713731588742799
-0.153398251295436 -0.085852457932489 0.695382307292032
-0.158641167122290 -0.126574331604671 0.741067141994075
-0.149199853283764 -0.076574451058875 0.721327787962199
-0.118452177704781 -0.128919992465615 0.686105224361643
-0.117030229082430 -0.109292204578085 0.734672761923813
-0.171873189024721 -0.155167602570161 0.666303966133732
-0.155675309371968 -0.103187018737059 0.650215804738876
-0.163770437932544 -0.146558299605206 0.689744636722552
-0.150539108987532 -0.099258181161107 0.673598035918753
-0.118565360749770 -0.147171566920402 0.637182661615497
-0.117267220519489 -0.133584750819801 0.682831231545983
-0.173492861497093 -0.163681508397196 0.607971503618690
-0.151448500106147 -0.111280992368605 0.605246795049936
-0.165698014484447 -0.161600788255848 0.636617439347971
-0.148639712703972 -0.112486969262252 0.631493019239646
-0.120715607618754 -0.154235574842548 0.581787645596628
-0.118287484825032 -0.149583058736084 0.630998709614592
-0.171121099240060 -0.162593565250465 0.547146473270025
-0.158869150112911 -0.108045805168370 0.556632136383322
-0.170817583890845 -0.164410037629634 0.576690250827616
-0.155381957398221 -0.116486257509065 0.583976236109424
-0.119153912583712 -0.143434447563512 0.529547433717470
-0.118455411506066 -0.151293508630254 0.577767568627266
-0.170937927495823 -0.148529301488657 0.483224616218979
-0.165032775362880 -0.094197975106877 0.505188825535209
-0.169365145142089 -0.156569455427381 0.516426746973579
-0.159823583463716 -0.103556365041013 0.534791504473355
-0.123248597968445 -0.117889727266928 0.470724126364466
-0.123740135763825 -0.135161459932239 0.521560868485761
-0.163167795964429 -0.124323143938421 0.416460940795486
-0.169327956427307 -0.062884846274561 0.434556830816962
-0.164473789712118 -0.134843854448852 0.449715043356459
-0.166215884661723 -0.082631822838038 0.472573167742296
-0.112036777926163 -0.085561415816803 0.405074033512181
-0.119815224946576 -0.109704283256167 0.461962372767486
-0.141051828973592 -0.095003422612747 0.343665764003113
-0.151872590046146 -0.032005277800294 0.364090914893300
-0.145398519872779 -0.108501540163805 0.377945443543170
-0.160320664918443 -0.047616684491360 0.398833489988781
-0.095759439156112 -0.044409446573663 0.349600020347625
-0.110948372807821 -0.066982072503160 0.401082829768581
-0.106566803051912 -0.065946794120221 0.276256252265765
-0.127031914486554 -0.003392142055480 0.295277933398089
-0.120821399117947 -0.077270873264267 0.302470369428427
-0.138243734528836 -0.017920225315937 0.326915135316363
-0.066076608143249 -0.020816787324429 0.285754850584204
-0.087196102366572 -0.047056081939955 0.336060325351469
-0.068106973378867 -0.036490098211529 0.211915617948260
-0.095300932331004 0.032818116851960 0.225817036716768
-0.082596712995511 -0.044165987534034 0.238040343603961
-0.107986441816202 0.017634495873791 0.258984981572066
-0.032891801324106 0.013843325838274 0.215634027454856
-0.057654634667042 -0.006982354439690 0.275212889379612
-0.041726546435813 -0.023249298848467 0.154288355099241
-0.060578453000654 0.053893030814705 0.152130254712850
-0.054663830449661 -0.027290164540378 0.184503377409359
-0.071216042328971 0.044895440709697 0.188244423524952
-0.004003792470032 0.022518690743773 0.138908858157500
-0.018137582959477 0.016729955457104 0.204710708684393
-0.024361033533225 -0.025706987825369 0.089489906914046
-0.035767574610049 0.054141802527875 0.079114255489847
-0.033126251917297 -0.026066632725467 0.117530428845539
-0.044214032581703 0.055752697539615 0.108331188131806
0.010399096483519 0.014109652472707 0.058299200558963
0.006371858954168 0.021806561503567 0.119757132016342
-0.020539604357109 -0.048345675695411 0.014902511252145
-0.034377040057328 0.045741772703247 -0.003048550668906
-0.022253519038370 -0.043252438670909 0.039480093978589
-0.035781664744221 0.050976835012694 0.023243639696217
-0.008970218286985 -0.008141210228893 -0.029004887671960
0.008970218286985 0.008141210228893 0.029004887671960
