ply
format ascii 1.0
element vertex 108
property double x
property double y
property double z
end_header
-0.065902890184662 -0.126288685365802 0.968034250788354
-0.065662470434915 -0.044642856022622 0.964114111539323
-0.061628883979056 -0.120769244130508 0.985646722627741
-0.062162444686589 -0.049418127745495 0.983030260161780
-0.044070789511312 -0.087709734363061 0.947427711181453
-0.037774055491532 -0.085929082462237 0.974349754662305
-0.074029961013365 -0.123194971754821 0.934026863385280
-0.074843137342589 -0.049785796065430 0.925449592083744
-0.070409035321998 -0.120041360226854 0.949366802733660
-0.069958834849165 -0.045246527656028 0.946010311164288
-0.056812760220635 -0.088549133282672 0.904478972511383
-0.044468544803373 -0.084546737908009 0.937880480062912
-0.096804418776997 -0.125833240374892 0.897585467539877
-0.101765732877976 -0.061975160185782 0.883195614045263
-0.086771931722688 -0.119884024684540 0.916932218699195
-0.091826543039986 -0.056004966423121 0.904687649125399
-0.073255980556085 -0.098149085609250 0.859633926515524
-0.060209827798288 -0.090072527770448 0.895359583657031
-0.118167825150611 -0.134061061156129 0.853743504633089
-0.122126884244320 -0.076453894460441 0.832677379626269
-0.109236410865234 -0.126227683339746 0.872566632066494
-0.111405433131034 -0.067855369059329 0.856600938903331
-0.087087154861851 -0.114137965062860 0.813333388739624
-0.076667677578901 -0.101010384261234 0.849777544857699
-0.136030101666830 -0.149168861572779 0.804018020525547
-0.134766724864772 -0.096152028330927 0.781448927048725
-0.128043804744408 -0.138703011708936 0.825698582229194
-0.127068048354792 -0.087029879203903 0.802786938913754
-0.097653202623693 -0.134915917602704 0.769725496955437
-0.090152437664308 -0.117634678483979 0.805445633551599
-0.151559119693254 -0.165579786717965 0.756326857377402
-0.141486884712465 -0.116319684582952 0.730263810752133
-0.144114940323648 -0.152067975960370 0.779179154830390
-0.135376745125324 -0.107163860129327 0.753314295782983
-0.103144765104998 -0.159309551315838 0.723433516024820
-0.099093236876770 -0.139512599683687 0.760838523060082
-0.160538010668592 -0.186399695402426 0.705555229927103
-0.141950058466857 -0.138043582567552 0.682770835181851
-0.154315527983694 -0.173129132476380 0.727687648267186
-0.138612060724388 -0.128950416303586 0.704094769656252
-0.104923760842218 -0.185293378115415 0.676845909891014
-0.103556321760420 -0.163193530992864 0.716555468580279
-0.162217912616882 -0.212827098020423 0.648338089759994
-0.143033741517955 -0.162141315050228 0.632014941285783
-0.156108877138810 -0.200917625549030 0.674765768405258
-0.142321315141265 -0.156698333367954 0.656020480661208
-0.101848265030874 -0.206904104920456 0.625711030557056
-0.104626203448157 -0.191784435331317 0.667731489527471
-0.157890081094169 -0.229495832633190 0.590983488013810
-0.137759964550486 -0.176263146068375 0.580951829041302
-0.154337334137804 -0.223048387725510 0.616024405668570
-0.137949043228530 -0.171660943442047 0.603590481389463
-0.095318840024830 -0.228563964579062 0.571399353404684
-0.100749124452812 -0.218538102179166 0.611980882231092
-0.149587456923515 -0.231567693300930 0.522551912034162
-0.118862033727664 -0.179595347238232 0.527072410589394
-0.148377077356763 -0.232022586237305 0.553491808416641
-0.121372777750280 -0.181163734170565 0.555350023979554
-0.083542688723503 -0.230851402542499 0.511849230775048
-0.092110575097953 -0.229524263441714 0.561340919787256
-0.129197598721380 -0.228557339924649 0.457576197440087
-0.107076773526520 -0.165253246460846 0.479826479423272
-0.132225065788228 -0.232152595080165 0.487052873279042
-0.110232317245357 -0.175905138702793 0.505447330366457
-0.068887296997824 -0.215597031646956 0.451576192732566
-0.081823038848734 -0.227256699441517 0.497265330111578
-0.121869626831273 -0.201841212785142 0.388060662382074
-0.095453541331232 -0.147197474830307 0.423278705379166
-0.124794963809251 -0.218373313900636 0.422910761031965
-0.103154150032083 -0.162063199333606 0.455515929917571
-0.053876106124701 -0.191348588276379 0.389975739562033
-0.069456465222828 -0.211810213567991 0.437099114621511
-0.107371294620641 -0.164000082667675 0.327357573857267
-0.081061755645746 -0.109001649674465 0.369651851876763
-0.113764914211215 -0.185458718448479 0.359153982849924
-0.088828610890730 -0.129260394924672 0.396547672767230
-0.037303705028193 -0.145950107609748 0.333059193088925
-0.049795042978881 -0.174499055803584 0.381452569604872
-0.069429966605175 -0.120923543372883 0.273952922304974
-0.062601604068733 -0.063511251927850 0.313361887300240
-0.082965791735017 -0.135102512035343 0.297144181242106
-0.072285744711814 -0.084138217552526 0.343742276412067
-0.012502931095912 -0.093226139298415 0.279804700369998
-0.031315845520430 -0.125491794645343 0.325179718718916
-0.034217444153427 -0.080186611195031 0.214463801701392
-0.048732614027359 -0.011324708705791 0.247963022905518
-0.046151483051602 -0.095542560124910 0.240894792673863
-0.058298615000070 -0.032830545149289 0.277772863656006
0.011198150203772 -0.046866255660063 0.213179170799760
-0.006553991432827 -0.079857586692507 0.271968286253676
-0.024693123298066 -0.050823382562902 0.152064525619530
-0.025788675521654 0.028209572668791 0.179380736037970
-0.032632219557793 -0.059504164089645 0.180501406742875
-0.030177509070422 0.015264997945330 0.209645193697566
0.023999190748279 -0.005898840714085 0.141478051839914
0.018116221602060 -0.027048325955604 0.202364698497421
-0.024637917844622 -0.045819008208238 0.084320533562524
-0.014369151449574 0.049015403962624 0.096655916107234
-0.028071697048815 -0.042837085640481 0.113742556002570
-0.022659354393203 0.050089702086637 0.126278334343281
0.020254328813931 0.001158624454148 0.053238207110160
0.025827043311798 -0.000268160490102 0.116036618620420
-0.032894169434383 -0.047791223032511 0.014414971975932
-0.037849962990017 0.049201446340729 0.010584541588746
-0.029866702367535 -0.044418997908908 0.041111225152199
-0.033612668410952 0.050443845070478 0.038501387340652
-0.013679635336063 -0.001638359844573 -0.028879904887230
0.013679635336063 0.001638359844573 0.028879904887230
