ply
format ascii 1.0
element vertex 108
property double x
property double y
property double z
end_header
-0.136003155730988 -0.071116195679236 0.976096618116171
-0.139278297828059 -0.002166578207072 0.974862738308171
-0.139132762080889 -0.066741894263872 0.988925864610702
-0.142489488837521 -0.007111031782192 0.988050298984751
-0.109313451454219 -0.031895840059644 0.958799494717788
-0.119598526187629 -0.033985065664424 0.989420780196799
-0.137046592961914 -0.058183969124510 0.924429076727657
-0.134743883579378 -0.004744371312047 0.925640620677852
-0.142162679970692 -0.054714152393097 0.942416260575064
-0.138578127464450 -0.006446598791070 0.945599237869404
-0.106547096686513 -0.026076996430037 0.914820190700003
-0.115993753852216 -0.025943686626086 0.952519356845937
-0.128341956503918 -0.060528999079729 0.880733555661140
-0.133410080196989 -0.008150236955850 0.872256744952754
-0.131334491221185 -0.056882611514511 0.902750833599423
-0.136336312683719 -0.005014987862925 0.894132719201134
-0.094614576104274 -0.023620757414380 0.868851584651829
-0.104978649240026 -0.020623050182674 0.909976836270737
-0.118024671112410 -0.072164570310309 0.845975904430961
-0.125755699284407 -0.020090516309747 0.821155358781021
-0.118287999120215 -0.064665129716605 0.865714454644562
-0.124887892430115 -0.014579202174969 0.843461592185011
-0.079414201968037 -0.042873561499298 0.827664497973945
-0.087067172194863 -0.029789215997206 0.865129490284367
-0.105244798619343 -0.090312572333911 0.811012293080391
-0.106219347362513 -0.038187733646129 0.781954517647722
-0.109581011519292 -0.077537872355282 0.829362728509993
-0.110456106916658 -0.028008695458719 0.803940995613663
-0.060086631538046 -0.069665305379091 0.791766072195668
-0.075398214734722 -0.046213830255443 0.828266155448920
-0.095365531155103 -0.109318506411512 0.772458016251969
-0.087325092573936 -0.062023385524021 0.744909204349738
-0.097115957064127 -0.097029317447273 0.793602314821521
-0.090163862543789 -0.049998229910465 0.768795170686264
-0.042742015052542 -0.097631680265127 0.750965278300662
-0.055878555927609 -0.074090391481674 0.789817915166498
-0.084064997791596 -0.133138875860379 0.722516213771748
-0.070697809795407 -0.087505542793570 0.703229553228684
-0.083228931366816 -0.121839988296921 0.746402180108274
-0.072501371534577 -0.078006925369184 0.726077489963015
-0.030018099761133 -0.125786146585309 0.709038522057998
-0.038459643325617 -0.106132942859952 0.749507804800321
-0.075250562958917 -0.151675992038371 0.672551370090844
-0.055190611507219 -0.103427247579758 0.659266472097094
-0.071525176991358 -0.141881835948082 0.696755681179662
-0.054139415504634 -0.098662891552834 0.682411593297376
-0.019070002722357 -0.146174552703885 0.652837977106560
-0.024666663345379 -0.132091911915063 0.697357103540345
-0.066395453353604 -0.158515466812514 0.613774912948773
-0.039410680639519 -0.110038896604292 0.612448868338042
-0.061613228640436 -0.157238090860368 0.639745402604224
-0.041168395091616 -0.111936033831950 0.637511581709445
-0.012737199248945 -0.152762455184858 0.595971588478244
-0.014520776273237 -0.146687336976227 0.642801653294808
-0.056854045127950 -0.154774798415930 0.552392213872313
-0.035266791230984 -0.101637087355271 0.566642726266111
-0.053644499918537 -0.158613509472563 0.578865612999813
-0.036214066716203 -0.111546449448974 0.590461685029222
-0.003624169264559 -0.138307393356426 0.541591768609342
-0.008770586017094 -0.147974822842958 0.587891650695907
-0.044261558726151 -0.132564491643355 0.484178269021953
-0.028921291585767 -0.078265315976843 0.512327562827697
-0.042143884291957 -0.147213287648958 0.514936155905013
-0.029530237603816 -0.093954257613275 0.539398857601489
0.007809203674314 -0.110672059394487 0.478213184302297
-0.001502968115975 -0.130200887659015 0.527036548092227
-0.028825364954353 -0.103342136205807 0.419838067257836
-0.030983479046888 -0.042162575878225 0.452226706874943
-0.028920586242889 -0.120764105293604 0.451692762316260
-0.030100859992157 -0.060074758266266 0.485373825200245
0.019447361162113 -0.061112787868460 0.424960267238224
0.010789512448361 -0.086155516524986 0.472124194350397
-0.014492327443823 -0.060141060496802 0.362362262382886
-0.022180329700258 -0.005170633524681 0.388274443693752
-0.018800091514357 -0.075959550108502 0.393532069506725
-0.025546461028598 -0.023798268705355 0.423238760387200
0.031790156185083 -0.020897428562234 0.361857471996496
0.022550634711234 -0.048432603835490 0.409581911582426
0.006834890045436 -0.028204310550231 0.295429925541940
-0.007913594420265 0.032469283819498 0.312525555991494
-0.004545347063291 -0.038423083053105 0.325811629556707
-0.014380177926213 0.021491562379844 0.348644283862014
0.050723204831953 0.012686767233165 0.293346342680185
0.035926286821959 -0.008011284408874 0.351789877983818
0.012521364328263 -0.015314404568188 0.228854962425873
0.007094926453143 0.052362304123391 0.236684268372211
0.007714922842948 -0.021735375901356 0.264316075619759
0.005278903656461 0.045508252263101 0.271886755844146
0.056581312548438 0.030601065649840 0.211871246379637
0.052330446136733 0.019229057541357 0.275044575909169
0.021036028437771 -0.020091691881210 0.158114949614929
0.007382706347387 0.056816779512560 0.157185777930247
0.019318753644016 -0.017721034468090 0.189254191880720
0.009058365911337 0.055635095077536 0.191825401785499
0.053254915535561 0.019915826390284 0.125490725476553
0.060060063622973 0.025725030333891 0.188808180067501
0.012014457913238 -0.039912767211543 0.089146758113643
0.000640804004707 0.049089278054954 0.088290942088277
0.014003524829335 -0.035008283066179 0.117718787417630
0.002341385683682 0.051733843619050 0.116266956660314
0.033347318145522 0.005615704880729 0.051526355255757
0.049894426950246 0.013597835117311 0.106382046453050
-0.024450123081818 -0.051506017869440 0.018590839793870
-0.020896370547917 0.043094568934420 0.013911360026604
-0.013993414914750 -0.051281248605635 0.045466989704736
-0.010892022279971 0.045886786274321 0.037824599621081
-0.018879560145284 -0.001389995698341 -0.022309877675526
0.018879560145284 0.001389995698341 0.022309877675527
