ply
format ascii 1.0
element vertex 108
property double x
property double y
property double z
end_header
-0.077698796024528 -0.010953985609930 0.991597200129461
-0.079559824690245 0.066399780067447 0.994493319836633
-0.076808316858532 -0.006283701417265 1.003411456552207
-0.078185283961264 0.059753699730723 1.006993754755682
-0.055906320195135 0.027238107753647 0.975285902599751
-0.058412764278169 0.026037295385116 1.003526224030549
-0.079856084925036 -0.004606834519120 0.955264194332602
-0.089894235763290 0.066557736998527 0.957732301710396
-0.078244244843372 -0.001172545114352 0.970243412673943
-0.086579081309613 0.063041921435782 0.975148327208165
-0.063489951348592 0.036421447120021 0.932935732541988
-0.058078652612889 0.034876332316463 0.968672335671267
-0.099369953166455 -0.007681292696866 0.915497869680476
-0.108151485039943 0.066179222693635 0.904888793099010
-0.090328556664416 -0.002214672639679 0.931054079699402
-0.098982946553440 0.068183892685312 0.928136850540610
-0.072539112246628 0.034902051878205 0.886977302081633
-0.064191415999516 0.035914335006416 0.927660796010997
-0.109116696517417 -0.007351548504335 0.868812497644828
-0.116882305702071 0.053012505543026 0.857284068049750
-0.101796569553136 0.001746382506063 0.891774485621386
-0.107469431379013 0.059114592885155 0.880417843287759
-0.076355312879537 0.021813221324949 0.841999126615997
-0.070611115665430 0.034648010546653 0.880755837151037
-0.121172619765594 -0.022750529504306 0.831454834213637
-0.124176713104610 0.032570791979872 0.804473800758729
-0.113316264202716 -0.012069146985111 0.850590916062289
-0.115576673987569 0.042140895321885 0.829166035855917
-0.082189771197118 -0.001583087552735 0.799215363569233
-0.076906584995379 0.018142360479624 0.837937619597033
-0.129708845253028 -0.045449498566439 0.790687387752547
-0.127462993710670 0.013341537379247 0.762724643478670
-0.124383925422801 -0.034840664622348 0.809767420367590
-0.122404247080742 0.022037903534135 0.782950895052885
-0.083279213010557 -0.027635305136409 0.758463688537513
-0.082584056931381 -0.006550117254939 0.795375384473581
-0.133998916679176 -0.063277522326840 0.741554775153349
-0.124773115772189 -0.013841855646354 0.717831391094259
-0.128114717699734 -0.054787397940643 0.763138340202926
-0.120691469851107 -0.004392828354431 0.742132494743059
-0.082485303519784 -0.055276554888503 0.712534859836899
-0.082980283764642 -0.034402946797973 0.757022665167800
-0.133181956637784 -0.087405625527314 0.685027545915766
-0.113575158281767 -0.035116543317644 0.667471518652663
-0.127055848195536 -0.077224803912601 0.710693970073301
-0.111810456653897 -0.028187790439126 0.691008314570431
-0.076621243442461 -0.076094113745424 0.662897561497846
-0.079461071278649 -0.062063850177437 0.707306509681895
-0.128827586307280 -0.097937543423552 0.623877589411005
-0.104854528389386 -0.039666479372343 0.620407874949498
-0.127154358969758 -0.096242236084912 0.652963259456062
-0.107391544781660 -0.039076142639137 0.645458242812084
-0.068271606096349 -0.087911524454044 0.608233787299730
-0.076554032889605 -0.080398743414068 0.655130496488942
-0.109491085986935 -0.098597759720738 0.557850864307514
-0.095762178038611 -0.040222118960934 0.571134290035465
-0.111231038602562 -0.101038691712540 0.588903838188508
-0.100000325066524 -0.048573212131295 0.597990122604910
-0.049572028885197 -0.074489310147633 0.553577292222862
-0.062594376797723 -0.083845407324957 0.601503269156530
-0.093404228029036 -0.079712807555139 0.499329155848002
-0.083637345775954 -0.023986039017452 0.518754704084947
-0.097540224722103 -0.089664579487918 0.529520039135867
-0.087607621141944 -0.039270009901706 0.546394740650166
-0.033198373550130 -0.050242314633443 0.496266586901628
-0.048751671920557 -0.070034730581282 0.539621033054228
-0.063154141221688 -0.050745544549049 0.429401792305127
-0.068127964770390 0.010401985581962 0.458413700588204
-0.070282584659774 -0.063617214651743 0.460431958272877
-0.074023082431704 -0.007281183665605 0.490598092548499
-0.010399680526901 -0.011952438407769 0.438573485077503
-0.028920191355354 -0.038534818655666 0.486862690161443
-0.034427817128903 -0.020305230039755 0.368939470120919
-0.043402003078087 0.039659928163220 0.391896605349978
-0.044642607976107 -0.034200587227281 0.399539197385543
-0.053522893261192 0.025716286138083 0.426269343794773
0.014581293046455 0.016840368325746 0.373014807470254
-0.003715506122312 -0.006510082088076 0.426382170174115
-0.007896148092367 -0.004805311891813 0.297496836171602
-0.017876308598012 0.063667925863103 0.309636954588880
-0.019811826937834 -0.009583569716322 0.334187732096484
-0.026173778908514 0.055576212046542 0.345199344082959
0.040175653903635 0.036276107332437 0.295466203980808
0.023304834587335 0.024205140567015 0.359735263940302
0.013641073218599 0.001656364039964 0.235776439198379
0.006438382743784 0.074565740920736 0.235061144217084
0.006319733067443 0.002774194426269 0.269375892329270
0.003084406310118 0.072420583888975 0.269800022460648
0.060286652724758 0.039374829247676 0.213146864425477
0.051555104150505 0.039025431427776 0.279310922283179
0.016645894469739 -0.008924809243385 0.166304020733499
0.012326706558599 0.067221592856337 0.154652573989331
0.014330406000776 -0.002943797951346 0.195547405072260
0.012056165885552 0.070548151266635 0.186546286374460
0.057082140914049 0.026378443534268 0.128066796818185
0.061954542040031 0.037500698163712 0.194050332468938
0.007044248268985 -0.030643280673423 0.091889806853407
0.005683295233000 0.056850543539678 0.076391587167089
0.011787808948879 -0.023456846902729 0.118974446467411
0.009969241823774 0.062064092814812 0.101069991933906
0.031018034099004 0.009462493666231 0.043802718702785
0.052951967517980 0.020365646746113 0.098331101245690
-0.025989859778317 -0.048378131681851 0.032068775251141
-0.018661483143288 0.054270095057291 0.011388063873681
-0.019193101631761 -0.047276072724916 0.052459534965559
-0.014483024909608 0.060867162644279 0.029313627858804
-0.017856169695893 -0.004154558452249 -0.022447960697767
0.017856169695893 0.004154558452249 0.022447960697768
