ply
format ascii 1.0
element vertex 108
property double x
property double y
property double z
end_header
-0.019150604673246 -0.158415712086487 0.970602010092060
-0.019272453695558 -0.072108762978868 0.962471930501949
-0.019491428750146 -0.158110458842187 0.982113841533272
-0.019310042731426 -0.072889555368212 0.977038060314014
0.009824235095972 -0.122871872955028 0.943502081158902
0.008567651286175 -0.119025177526040 0.975005477347634
-0.022477612760700 -0.168672725645761 0.925548397161340
-0.019902889941429 -0.077574057428869 0.919450900537609
-0.018939450156322 -0.161533836135693 0.942147109939785
-0.016072592413993 -0.077078336251143 0.934286460485964
0.008923359612176 -0.127695126490366 0.899450758426199
0.010023280393288 -0.124800013902284 0.932662059130557
-0.024639865287055 -0.176566675453505 0.884559950163379
-0.031168752859342 -0.096204091796651 0.870004415918472
-0.021800505564255 -0.169433588277833 0.902513634160941
-0.025514756403774 -0.093994663768904 0.887608698475245
0.003086968036255 -0.145421510344859 0.853056301699238
0.007676109992494 -0.132950527800485 0.890657446787110
-0.032304749023870 -0.186640032515382 0.841200114325407
-0.046948075110940 -0.117333670911968 0.822907876729623
-0.028134888796578 -0.182169964551961 0.856897194793831
-0.035451380194239 -0.111449094733021 0.838899867150596
-0.005505027826841 -0.165814697542730 0.806309163951178
0.000362645899736 -0.148970773067212 0.841877473797262
-0.054090244201319 -0.205668157477796 0.795807947796464
-0.044839052695781 -0.141366687703848 0.774805515487036
-0.049176171518917 -0.199918296366994 0.808680300515780
-0.041569058850651 -0.136179400754028 0.789032839425470
-0.011268511809702 -0.190906514224135 0.760239385674971
-0.006790118757800 -0.171683632646350 0.795807947796464
-0.063317469543048 -0.229511463162476 0.747705586553878
-0.047297981102546 -0.166285443455013 0.727719319589936
-0.056350127310768 -0.222801189571469 0.762610522239574
-0.048027057033145 -0.160384469374513 0.741608089930147
-0.012317472958295 -0.215486968652485 0.713830801525134
-0.011451663756282 -0.195196962096695 0.750076723118481
-0.063171149806111 -0.250948061449952 0.693167175089338
-0.050277353677071 -0.193247125464308 0.672164742779910
-0.056127115849643 -0.243781169369539 0.712137024432385
-0.045549207970742 -0.185943247837073 0.694920236903087
-0.011655502286360 -0.237650372391884 0.665389886684325
-0.013051089846247 -0.220198464181853 0.705700721935023
-0.061602753591393 -0.265932968440146 0.635241209439301
-0.042927561925487 -0.210292617991227 0.632870072874698
-0.064634851726296 -0.262163469286163 0.657259807094214
-0.044525726638409 -0.206423722326289 0.649468785653143
-0.005070861848792 -0.247369534780211 0.615255194750768
-0.011346969461750 -0.243083627865004 0.655566030001466
-0.068141227629202 -0.267168613391037 0.575960272570147
-0.040064236038878 -0.210946515850089 0.576637884317410
-0.061176408151008 -0.267888355131522 0.602721395629674
-0.041323847153577 -0.214156215872586 0.596623899005943
0.001981497196156 -0.245772883719740 0.561394142758082
-0.003558723050172 -0.249993451304143 0.602382589756043
-0.045983626224199 -0.253045731471728 0.516001723953730
-0.028725970078722 -0.194146739571061 0.528293338682652
-0.048443816008007 -0.257387895803034 0.540141957794228
-0.031775979767630 -0.204671165063358 0.549876761257883
0.012866424247216 -0.225434944836333 0.506516925419911
0.005890756926456 -0.241666092344576 0.548182984165134
-0.030730298199348 -0.227375699554014 0.451639708081739
-0.022009389602502 -0.166312436923724 0.481449579453132
-0.035611827354052 -0.242962787944327 0.481449579453132
-0.022501578924509 -0.184314557799720 0.504823148327162
0.023419104585267 -0.193001156941008 0.450956798550898
0.015754473123860 -0.218524112295560 0.491427324135184
-0.029215384371235 -0.189499069720047 0.391662995635910
-0.016803434272452 -0.122846140863360 0.431314887519575
-0.032317615069705 -0.201088854262489 0.420458972140493
-0.015051633835746 -0.146217186983305 0.454349650519973
0.035228621008523 -0.142408080590185 0.394729907777188
0.027568025953652 -0.176466017565509 0.435057645480256
-0.010268239814953 -0.141828099426016 0.333077834343431
-0.008492977765255 -0.068843562366499 0.375465148481590
-0.000461285584464 -0.161785354717979 0.362210093967561
-0.004299403649563 -0.091612679361735 0.404553512184639
0.043205569425667 -0.090013757822587 0.341885273405397
0.037334111567962 -0.128990560713075 0.382873720403357
-0.001342988137213 -0.095486620534843 0.276168034038880
-0.003834207796267 -0.015906342919784 0.316140567966764
0.004669743949258 -0.110559571642608 0.305977905410273
0.000569511734715 -0.039670181850782 0.342224079279028
0.052693899815206 -0.039875029482494 0.276168034038880
0.045039863920957 -0.073632758721688 0.326641531846069
0.010756140455015 -0.057701314398757 0.214388056973008
0.002269847988085 0.026766546980810 0.244983513966507
0.010423641466596 -0.066928539740486 0.242284167095430
0.002021861261518 0.012595985009292 0.275151868693394
0.051483734680574 -0.001097271889322 0.208418463981392
0.051932532632317 -0.028084433714876 0.259908127134067
0.004983574557447 -0.039364928606483 0.152863634895958
-0.000276115434616 0.059836321180993 0.165794767785458
0.010383277401234 -0.039851820144911 0.176576009643620
0.005889495549413 0.051510728149285 0.192158557076579
0.046032567653451 0.016984568015764 0.124070181145460
0.049572748461097 0.003530720479827 0.185044895107362
-0.004456571229066 -0.038412084388534 0.085114064838470
-0.007143808880534 0.058820912661733 0.084775258964839
0.000514263420251 -0.032692748602162 0.113907770864377
0.001050348663339 0.060477857544838 0.114188805669460
0.025887114906738 0.007553504143957 0.044510590113899
0.044079703716160 0.016302667586556 0.102728942962401
-0.037912074528863 -0.061771525839687 0.025155516222054
-0.025695890147086 0.064360628357244 0.022051519595724
-0.023517996545403 -0.054089235099685 0.049206696843347
-0.022109795215090 0.058491693253625 0.055642999340709
-0.017114742126556 -0.006954602324150 -0.028027924023369
0.017114742126556 0.006954602324150 0.028027924023369
